# .PCD v0.7 - Point Cloud Data file format
VERSION 0.7
FIELDS x y z
SIZE 4 4 4
TYPE F F F
COUNT 1 1 1
WIDTH 1029
HEIGHT 1
VIEWPOINT 0 0 0 1 0 0 0
POINTS 1029
DATA ascii
-0.075431027 -0.052888423 0.98900002
-0.073696986 -0.052888423 0.98900002
-0.075431027 -0.051154375 0.98900002
-0.073696986 -0.051154375 0.98900002
-0.071311571 -0.058266766 0.99199998
-0.068702608 -0.058266766 0.99199998
-0.0669633 -0.058266766 0.99199998
-0.071311571 -0.056527462 0.99199998
-0.068702608 -0.056527462 0.99199998
-0.0669633 -0.056527462 0.99199998
-0.087834984 -0.053048849 0.99199998
-0.086095676 -0.053048849 0.99199998
-0.083486713 -0.053048849 0.99199998
-0.080877751 -0.053048849 0.99199998
-0.079138443 -0.053918503 0.99199998
-0.076819375 -0.05420839 0.99200004
-0.073920533 -0.054788157 0.99199998
-0.071311571 -0.053918503 0.99200004
-0.068702608 -0.053918503 0.99199998
-0.0669633 -0.053918503 0.99199998
-0.087834984 -0.051309545 0.99199998
-0.086095676 -0.051309545 0.99199998
-0.083486706 -0.051309545 0.99199998
-0.080877751 -0.051309545 0.99199998
-0.079138443 -0.051309545 0.99199998
-0.077399142 -0.051309545 0.99199998
-0.071311571 -0.051309545 0.99199998
-0.068702608 -0.051309545 0.99199998
-0.0669633 -0.051309545 0.99199998
-0.083486706 -0.048700582 0.99200004
-0.080877751 -0.048700582 0.99199998
-0.079138443 -0.048700582 0.99199998
-0.076529488 -0.048700582 0.99200004
-0.073920533 -0.048700582 0.99199998
-0.071311571 -0.048700582 0.99200004
-0.068702608 -0.049570236 0.99199998
-0.0669633 -0.049570236 0.99199998
-0.083486706 -0.046091624 0.99199998
-0.080877751 -0.046091624 0.99199998
-0.079138443 -0.046091624 0.99199998
-0.076529488 -0.046091624 0.99199998
-0.073920533 -0.046091624 0.99199998
-0.071236476 -0.060769066 0.995
-0.068910383 -0.061059825 0.995
-0.067165814 -0.060187545 0.995
-0.078505501 -0.05844298 0.995
-0.075888649 -0.05844298 0.995
-0.07414408 -0.05844298 0.995
-0.065421246 -0.05844298 0.995
-0.081122346 -0.056698415 0.995
-0.078505501 -0.056698415 0.995
-0.075888649 -0.056698415 0.995
-0.07414408 -0.056698415 0.995
-0.065421246 -0.056698415 0.995
-0.095078878 -0.054953847 0.995
-0.093334317 -0.053209282 0.995
-0.091589741 -0.053209282 0.995
-0.088972896 -0.054081567 0.995
-0.086356044 -0.054953847 0.995
-0.083739191 -0.054953847 0.995
-0.081122346 -0.054953847 0.995
-0.065421246 -0.054081567 0.995
-0.063676685 -0.054081567 0.995
-0.091589741 -0.051464718 0.995
-0.089845181 -0.051464718 0.995
-0.065421246 -0.051464718 0.995
-0.063676685 -0.051464718 0.995
-0.093334317 -0.049720149 0.995
-0.091589741 -0.048847865 0.995
-0.088972896 -0.048847862 0.99499995
-0.086356044 -0.048847865 0.995
-0.068910383 -0.047975581 0.995
-0.06629353 -0.048847865 0.995
-0.063676685 -0.049720149 0.995
-0.093334317 -0.046231017 0.995
-0.091589741 -0.046231017 0.995
-0.088972896 -0.046231017 0.995
-0.086356044 -0.046231017 0.995
-0.071527228 -0.046231017 0.995
-0.093334317 -0.044486448 0.995
-0.091589741 -0.044486448 0.995
-0.088972896 -0.044486448 0.995
-0.086356044 -0.044486448 0.995
-0.083739191 -0.044486448 0.995
-0.081122346 -0.044486448 0.995
-0.078505501 -0.044486448 0.995
-0.075888649 -0.044486448 0.995
-0.07414408 -0.044486448 0.995
-0.072399512 -0.044486448 0.995
-0.090116076 -0.060369018 0.99800003
-0.088366248 -0.060369018 0.99800003
-0.086616419 -0.060369018 0.99800003
-0.08311677 -0.060369018 0.99800003
-0.081366941 -0.061243933 0.99800003
-0.078742206 -0.061243933 0.99800009
-0.076117463 -0.061243933 0.99800003
-0.073784366 -0.061535574 0.99800009
-0.066493407 -0.061243933 0.99800003
-0.063868672 -0.060369018 0.99800003
-0.061243933 -0.060369018 0.99800003
-0.090116076 -0.058619194 0.99800003
-0.088366248 -0.058619194 0.99800003
-0.086616419 -0.058619194 0.99800003
-0.083991677 -0.058619194 0.99800003
-0.081366941 -0.058619194 0.99800003
-0.063868672 -0.058619194 0.99800003
-0.061243933 -0.058619194 0.99800003
-0.058619194 -0.058619194 0.99800003
-0.090116076 -0.055994451 0.99800003
-0.088366248 -0.056869365 0.99800003
-0.086616419 -0.056869365 0.99800003
-0.083991677 -0.056869365 0.99800003
-0.063868672 -0.056869365 0.99800003
-0.061243933 -0.055994447 0.99800009
-0.058619194 -0.055994451 0.99800003
-0.061243933 -0.053369712 0.99800003
-0.061243933 -0.051619884 0.99800003
-0.065618493 -0.048120234 0.99800003
-0.063868672 -0.048120234 0.99800003
-0.061535574 -0.049286783 0.99800009
-0.06911815 -0.046370406 0.99800003
-0.066493407 -0.046370406 0.99800003
-0.063868672 -0.046370406 0.99800003
-0.088366248 -0.042870753 0.99800003
-0.086616419 -0.042870753 0.99800003
-0.083991677 -0.042870753 0.99800003
-0.081366941 -0.042870753 0.99800003
-0.078742199 -0.042870753 0.99800003
-0.076117463 -0.042870753 0.99800003
-0.073492721 -0.042870753 0.99800003
-0.070867978 -0.043745667 0.99800003
-0.06911815 -0.044620581 0.99800003
-0.067368321 -0.044620581 0.99800003
-0.073713645 -0.067570835 1.001
-0.083366618 -0.065815754 1.001
-0.081611529 -0.065815754 1.001
-0.078978896 -0.065815754 1.001
-0.076346271 -0.065815754 1.001
-0.073713645 -0.065815754 1.001
-0.071081005 -0.065815754 1.001
-0.069325924 -0.065815754 1.001
-0.064060666 -0.065815754 1.001
-0.062305581 -0.065815754 1.001
-0.090386964 -0.064060666 1.001
-0.088631876 -0.064060666 1.001
-0.08599925 -0.064060666 1.001
-0.083366618 -0.064060666 1.001
-0.081611529 -0.064060666 1.001
-0.078978896 -0.064060666 1.001
-0.076346271 -0.064060666 1.001
-0.073713645 -0.064060666 1.001
-0.071081005 -0.064060666 1.001
-0.06844838 -0.064060666 1.001
-0.065815754 -0.064060666 1.001
-0.064060666 -0.064060666 1.001
-0.061428033 -0.064060666 1.001
-0.090386964 -0.062305581 1.001
-0.088631876 -0.062305581 1.001
-0.085706733 -0.06172055 1.001
-0.083366618 -0.062305581 1.001
-0.065815754 -0.062305581 1.001
-0.064060666 -0.062305581 1.001
-0.061428033 -0.062305581 1.001
-0.058795404 -0.061428033 1.001
-0.058795404 -0.053530145 1.001
-0.060550489 -0.048264883 1.001
-0.062305581 -0.046509795 1.001
-0.09565223 -0.043877169 1.001
-0.093897134 -0.042999625 1.001
-0.091264501 -0.042999625 1.001
-0.06844838 -0.042999625 1.001
-0.065815754 -0.043877169 1.001
-0.064060666 -0.043877169 1.001
-0.062305581 -0.04475471 1.001
-0.09565223 -0.041244537 1.001
-0.093897134 -0.041244537 1.001
-0.091264501 -0.041244537 1.001
-0.088631876 -0.041244537 1.001
-0.08599925 -0.041244537 1.001
-0.083366618 -0.041244537 1.001
-0.081611529 -0.041244537 1.001
-0.078978896 -0.041244537 1.001
-0.076346271 -0.041244537 1.001
-0.073713645 -0.041244537 1.001
-0.071081005 -0.041244537 1.001
-0.069325924 -0.041244537 1.001
-0.076346271 -0.035979275 1.001
-0.073713645 -0.035979275 1.001
-0.076346271 -0.03422419 1.001
-0.073713645 -0.03422419 1.001
-0.073934555 -0.071294032 1.0039999
-0.083616458 -0.068653509 1.0039999
-0.080975935 -0.068653509 1.0039998
-0.078335419 -0.068653509 1.0039999
-0.076575071 -0.068653509 1.0039999
-0.073934555 -0.069533683 1.0039999
-0.071294032 -0.068653509 1.0039999
-0.068653509 -0.067773342 1.0039999
-0.066012993 -0.067773342 1.0039999
-0.064252652 -0.067773342 1.0039999
-0.061612125 -0.067773342 1.0039999
-0.088897496 -0.066012993 1.0039999
-0.086256981 -0.066012993 1.0039999
-0.067773342 -0.066012993 1.0039999
-0.066012993 -0.066012993 1.0039999
-0.060731951 -0.066012993 1.0039999
-0.05897161 -0.066012993 1.0039999
-0.05897161 -0.064252652 1.0039999
-0.056331083 -0.064252652 1.0039999
-0.056331083 -0.061612129 1.0039998
-0.053690568 -0.061612125 1.0039999
-0.056331087 -0.05897161 1.0039999
-0.053690568 -0.05897161 1.0039999
-0.056331083 -0.056331083 1.0039998
-0.053690568 -0.056331083 1.0039999
-0.056331083 -0.053690568 1.0039999
-0.053690568 -0.053690568 1.0039999
-0.05897161 -0.051050048 1.0039999
-0.057211258 -0.051930223 1.0039999
-0.05897161 -0.048409529 1.0039999
-0.060731951 -0.046649184 1.0039999
-0.061612125 -0.044008665 1.0039999
-0.056331083 -0.044008661 1.0039998
-0.067773342 -0.041368142 1.0039999
-0.066012993 -0.041368142 1.0039999
-0.064252652 -0.041368142 1.0039999
-0.094178535 -0.039607797 1.0039999
-0.091538012 -0.039607797 1.0039999
-0.088897496 -0.038727622 1.0039999
-0.086256981 -0.038727622 1.0039998
-0.083616458 -0.038727622 1.0039999
-0.080975935 -0.038727622 1.0039998
-0.078335419 -0.038727622 1.0039999
-0.076575071 -0.038727622 1.0039999
-0.073934555 -0.038727622 1.0039998
-0.071294032 -0.038727622 1.0039999
-0.069533683 -0.039607797 1.0039999
-0.083616458 -0.036087103 1.0039999
-0.080975935 -0.036087103 1.0039999
-0.078335419 -0.036087103 1.0039999
-0.071294032 -0.036087103 1.0039999
-0.080975935 -0.033446584 1.0039998
-0.078335419 -0.033446584 1.0039999
-0.076575071 -0.03256641 1.0039999
-0.074814729 -0.03256641 1.0039999
-0.071294032 -0.034326758 1.0039999
-0.078335419 -0.030806065 1.0039999
-0.076575071 -0.030806065 1.0039999
-0.078569494 -0.073272668 1.007
-0.075921081 -0.073272668 1.007
-0.073272668 -0.073272668 1.007
-0.071507066 -0.073272668 1.007
-0.067975856 -0.073272668 1.007
-0.06621024 -0.073272668 1.007
-0.080335096 -0.071507066 1.007
-0.078569494 -0.071507066 1.007
-0.076803878 -0.071507066 1.007
-0.071507066 -0.071507066 1.007
-0.068858653 -0.071507066 1.007
-0.06621024 -0.071507066 1.007
-0.063561834 -0.071507066 1.007
-0.085631922 -0.067975856 1.007
-0.068858653 -0.069741458 1.007
-0.06621024 -0.069741458 1.007
-0.063561834 -0.069741458 1.007
-0.060913429 -0.069741458 1.007
-0.059147816 -0.068858653 1.007
-0.056793682 -0.068564385 1.007
-0.053851001 -0.067975856 1.007
-0.05649941 -0.06621024 1.007
-0.053851001 -0.06621024 1.007
-0.052085392 -0.06621024 1.007
-0.053851001 -0.064444639 1.007
-0.051202592 -0.063561834 1.007
-0.048554178 -0.063561834 1.007
-0.045905769 -0.06267903 1.007
-0.043257359 -0.06267903 1.007
-0.051202588 -0.060913429 1.007
-0.048554178 -0.060913429 1.007
-0.045905769 -0.060913429 1.007
-0.043257359 -0.060913429 1.007
-0.051202588 -0.059147816 1.007
-0.048554178 -0.059147816 1.007
-0.045905769 -0.059147816 1.007
-0.043257359 -0.059147816 1.007
-0.051202592 -0.056499414 1.007
-0.048554178 -0.05649941 1.007
-0.045905769 -0.056499414 1.007
-0.043257359 -0.057382215 1.007
-0.051202588 -0.053851001 1.007
-0.048554178 -0.053851001 1.007
-0.056205146 -0.050908323 1.007
-0.053851001 -0.051202588 1.007
-0.051202592 -0.051202592 1.007
-0.048554178 -0.051202588 1.007
-0.05649941 -0.048554178 1.007
-0.053851001 -0.048554178 1.007
-0.050319787 -0.048554178 1.007
-0.048554178 -0.048554178 1.007
-0.059147816 -0.045905769 1.007
-0.05649941 -0.046788573 1.007
-0.060913429 -0.043257359 1.007
-0.059147816 -0.043257359 1.007
-0.053851001 -0.043257359 1.007
-0.06267903 -0.041491754 1.007
-0.060913429 -0.041491754 1.007
-0.059147816 -0.041491754 1.007
-0.05649941 -0.041491754 1.007
-0.053851001 -0.041491754 1.007
-0.093577147 -0.037960541 1.007
-0.090928733 -0.037960541 1.007
-0.068858653 -0.038843341 1.007
-0.06621024 -0.039726146 1.007
-0.064444639 -0.039726146 1.007
-0.09269435 -0.036194935 1.007
-0.090928733 -0.036194935 1.007
-0.089163132 -0.036194935 1.007
-0.086514719 -0.036194935 1.007
-0.069741458 -0.036194935 1.007
-0.085631922 -0.033546522 1.007
-0.083866306 -0.033546522 1.007
-0.085631922 -0.030898115 1.007
-0.083866306 -0.030898115 1.007
-0.0812179 -0.030898115 1.007
-0.085631922 -0.029132508 1.007
-0.083866306 -0.029132508 1.007
-0.0812179 -0.029132508 1.007
-0.085631922 -0.026484098 1.007
-0.083866306 -0.026484096 1.007
-0.082100704 -0.027366901 1.007
-0.075261831 -0.078803562 1.01
-0.073490962 -0.078803562 1.01
-0.071720093 -0.078803562 1.01
-0.069063798 -0.078803562 1.01
-0.066407494 -0.078803562 1.01
-0.080574423 -0.075261831 1.01
-0.078803562 -0.075261831 1.01
-0.076147266 -0.076147266 1.0100001
-0.073490962 -0.076147266 1.01
-0.071720093 -0.076147266 1.01
-0.069063798 -0.076147258 1.0100001
-0.066407494 -0.076147266 1.01
-0.063751191 -0.075261831 1.01
-0.080574423 -0.073490962 1.01
-0.069949232 -0.073490962 1.01
-0.063751191 -0.073490962 1.01
-0.061094899 -0.073490962 1.01
-0.058438599 -0.073490962 1.01
-0.055782299 -0.073490962 1.01
-0.050469697 -0.073490962 1.01
-0.048698831 -0.073490962 1.01
-0.046927962 -0.073490962 1.01
-0.084116161 -0.071720093 1.01
-0.082345299 -0.071720093 1.01
-0.061094899 -0.071720093 1.01
-0.058438599 -0.071720093 1.01
-0.055782299 -0.071720093 1.01
-0.054011431 -0.071720093 1.01
-0.051355131 -0.071720093 1.01
-0.048698831 -0.071720093 1.01
-0.046042532 -0.071720093 1.01
-0.043386228 -0.071720093 1.01
-0.087657891 -0.069949232 1.01
-0.08588703 -0.069949232 1.01
-0.055782299 -0.069949232 1.01
-0.054011431 -0.069949232 1.01
-0.051355131 -0.069063798 1.0100001
-0.048698831 -0.069063798 1.01
-0.046042532 -0.069063798 1.0100001
-0.043386228 -0.069063798 1.01
-0.041615367 -0.068178363 1.01
-0.038959064 -0.068178363 1.01
-0.050469697 -0.066407494 1.01
-0.048698831 -0.066407494 1.01
-0.046042532 -0.066407494 1.01
-0.043386228 -0.066407494 1.01
-0.041615367 -0.066407494 1.01
-0.038959064 -0.066407494 1.01
-0.046042532 -0.064636625 1.01
-0.043386228 -0.064636625 1.01
-0.041615367 -0.063751191 1.01
-0.041615367 -0.061094899 1.01
-0.039844498 -0.061094899 1.01
-0.041615367 -0.058438595 1.01
-0.039844498 -0.058438599 1.01
-0.043386228 -0.055782299 1.01
-0.041615367 -0.055782299 1.01
-0.039844498 -0.055782299 1.01
-0.046042532 -0.054011431 1.01
-0.046042532 -0.051355131 1.0100001
-0.052240565 -0.048698831 1.01
-0.046042532 -0.048698831 1.01
-0.054011431 -0.046042532 1.01
-0.051355131 -0.046042532 1.0100001
-0.048698831 -0.046042532 1.01
-0.051355131 -0.043386228 1.01
-0.048698831 -0.043386228 1.01
-0.096512228 -0.038073633 1.01
-0.068178363 -0.038073633 1.01
-0.066407494 -0.038073633 1.01
-0.063456051 -0.03866392 1.0100001
-0.061094899 -0.038959064 1.01
-0.058438599 -0.038959064 1.0100001
-0.055782299 -0.038959064 1.01
-0.096512228 -0.036302764 1.01
-0.094741359 -0.036302764 1.01
-0.068178363 -0.036302764 1.01
-0.066407494 -0.036302764 1.01
-0.063751191 -0.036302764 1.01
-0.061094899 -0.036302764 1.01
-0.058438599 -0.036302764 1.01
-0.055782299 -0.036302764 1.01
-0.096512228 -0.034531899 1.01
-0.093855925 -0.033646461 1.0100001
-0.091199629 -0.033646464 1.01
-0.088543333 -0.033646464 1.0100001
-0.069063798 -0.034531899 1.01
-0.066407494 -0.034531899 1.01
-0.063751191 -0.034531899 1.01
-0.061094899 -0.034531899 1.01
-0.058438599 -0.033646464 1.0100001
-0.09297049 -0.030990165 1.01
-0.091199629 -0.030990165 1.01
-0.088543333 -0.030990165 1.01
-0.058438599 -0.030990165 1.01
-0.091199629 -0.029219298 1.01
-0.088543333 -0.029219298 1.01
-0.061094899 -0.029219298 1.01
-0.058438599 -0.029219298 1.01
-0.087657891 -0.026563 1.01
-0.061094899 -0.026563 1.01
-0.058438595 -0.026562998 1.0100001
-0.08588703 -0.023906698 1.01
-0.084116161 -0.023906698 1.01
-0.061094899 -0.023906698 1.01
-0.058438599 -0.023906698 1.01
-0.079037629 -0.083477952 1.013
-0.07637345 -0.083477952 1.013
-0.073709257 -0.083477952 1.013
-0.071045063 -0.083477952 1.013
-0.06838087 -0.083477952 1.013
-0.066604748 -0.083477952 1.013
-0.063940562 -0.083477952 1.013
-0.061276369 -0.082589887 1.013
-0.058612179 -0.082589887 1.013
-0.055947989 -0.082589887 1.013
-0.05417186 -0.082589887 1.013
-0.052395735 -0.082589887 1.013
-0.079037629 -0.080813758 1.013
-0.076373443 -0.080813758 1.013
-0.073709257 -0.080813758 1.013
-0.071045063 -0.080813758 1.013
-0.06838087 -0.080813758 1.013
-0.066604748 -0.080813758 1.013
-0.063940555 -0.080813758 1.013
-0.061276369 -0.080813758 1.013
-0.058612179 -0.080813758 1.013
-0.055947989 -0.080813758 1.013
-0.05417186 -0.080813758 1.013
-0.051507674 -0.080813758 1.013
-0.048843481 -0.080813758 1.013
-0.047067355 -0.080813758 1.013
-0.082589887 -0.079037629 1.013
-0.080813758 -0.079037629 1.013
-0.079037629 -0.079037629 1.013
-0.077261508 -0.079037629 1.013
-0.063940555 -0.079037629 1.013
-0.061276369 -0.079037629 1.013
-0.058612179 -0.079037629 1.013
-0.055947989 -0.079037629 1.013
-0.05417186 -0.079037629 1.013
-0.051507674 -0.079037629 1.013
-0.048843481 -0.079037629 1.013
-0.047067355 -0.079037629 1.013
-0.082589887 -0.077261508 1.013
-0.080813758 -0.077261508 1.013
-0.079037629 -0.077261508 1.013
-0.063940555 -0.077261508 1.013
-0.061276369 -0.076373443 1.013
-0.058612179 -0.076373443 1.013
-0.055947989 -0.076373443 1.013
-0.05417186 -0.076373443 1.013
-0.05150767 -0.076373443 1.013
-0.048843481 -0.076373443 1.013
-0.046179295 -0.075485386 1.013
-0.05417186 -0.073709257 1.013
-0.052395735 -0.073709257 1.013
-0.04529123 -0.073709257 1.013
-0.043515101 -0.073709257 1.013
-0.041738976 -0.073709257 1.013
-0.039074786 -0.073709257 1.013
-0.041738976 -0.071045063 1.013
-0.039074786 -0.071045063 1.013
-0.039074786 -0.063940562 1.013
-0.043515101 -0.05417186 1.013
-0.041738976 -0.05417186 1.013
-0.039962847 -0.05417186 1.013
-0.043515101 -0.051507674 1.013
-0.043515101 -0.048843481 1.013
-0.051507674 -0.041738976 1.013
-0.05417186 -0.039074786 1.013
-0.051507674 -0.039962847 1.013
-0.05417186 -0.036410596 1.013
-0.06838087 -0.032858342 1.013
-0.066604748 -0.032858342 1.013
-0.063940555 -0.032858342 1.013
-0.061276369 -0.032858342 1.013
-0.055947989 -0.033746406 1.013
-0.05417186 -0.033746406 1.013
-0.063940562 -0.031082217 1.013
-0.061276369 -0.031082217 1.013
-0.055947989 -0.031082217 1.013
-0.055947989 -0.028418027 1.013
-0.05417186 -0.028418027 1.013
-0.055947989 -0.025753837 1.013
-0.05417186 -0.025753837 1.013
-0.055947989 -0.023977708 1.013
-0.05417186 -0.023977708 1.013
-0.081053093 -0.082834482 1.016
-0.084615864 -0.081053093 1.016
-0.081053093 -0.081053093 1.016
-0.045425359 -0.079271704 1.016
-0.04364397 -0.079271704 1.016
-0.041862588 -0.079271704 1.016
-0.046316054 -0.077490322 1.016
-0.04364397 -0.076599628 1.016
-0.040971894 -0.076599628 1.0159999
-0.03829981 -0.075708933 1.016
-0.040971894 -0.052550904 1.016
-0.052550904 -0.03829981 1.016
-0.071255468 -0.032955654 1.016
-0.070364773 -0.031174267 1.016
-0.068583384 -0.031174267 1.016
-0.066802002 -0.031174267 1.016
-0.053441599 -0.031174267 1.016
-0.070364773 -0.029392879 1.016
-0.068583384 -0.029392879 1.016
-0.052550904 -0.028502185 1.016
-0.052550904 -0.025830107 1.016
-0.041986197 -0.050919432 1.0190001
-0.041092873 -0.049132783 1.0190001
-0.046452817 -0.046452817 1.0190001
-0.043772843 -0.046452813 1.0190001
-0.04139065 -0.04675059 1.0190001
-0.049132783 -0.041092873 1.0190001
-0.050919432 -0.038412903 1.0190001
-0.052706078 -0.036626257 1.0190001
-0.036734082 -0.051069334 1.022
-0.038525991 -0.049277429 1.022
-0.036734082 -0.049277429 1.022
-0.040317897 -0.045693617 1.022
-0.038525991 -0.046589568 1.022
-0.036734082 -0.046589568 1.022
-0.046589572 -0.043901712 1.022
-0.043901712 -0.043901712 1.022
-0.041213848 -0.043901712 1.022
-0.038525991 -0.043901712 1.022
-0.036734082 -0.043901712 1.022
-0.034942176 -0.043901712 1.022
-0.047485523 -0.041213848 1.022
-0.043901712 -0.042109802 1.022
-0.042109802 -0.042109802 1.022
-0.049277429 -0.038525991 1.022
-0.051069334 -0.036734082 1.022
-0.05286124 -0.034046225 1.022
-0.051069334 -0.034046225 1.022
-0.045827746 -0.04133483 1.025
-0.044030581 -0.040436249 1.025
-0.04133483 -0.04133483 1.025
-0.038639084 -0.042233415 1.025
-0.036841914 -0.042233415 1.025
-0.047624912 -0.038639084 1.025
-0.048523497 -0.035943333 1.025
-0.048523497 -0.033247583 1.025
-0.051219247 -0.031450417 1.025
-0.048523497 -0.031450417 1.025
-0.051219247 -0.028754666 1.025
-0.051219247 -0.026058914 1.025
-0.053016413 -0.024261748 1.025
-0.051219247 -0.024261748 1.025
-0.058407914 -0.022464583 1.025
-0.056610744 -0.022464583 1.025
-0.053914994 -0.022464583 1.025
-0.051219247 -0.022464583 1.025
-0.045961879 -0.038752172 1.028
-0.044159453 -0.038752172 1.028
-0.042357024 -0.038752172 1.028
-0.045961879 -0.036048532 1.028
-0.044159453 -0.036048532 1.028
-0.041756213 -0.035748124 1.028
-0.045961879 -0.033344891 1.028
-0.044159453 -0.033344891 1.028
-0.042357024 -0.033344891 1.028
-0.045961879 -0.031542465 1.028
-0.044159453 -0.031542465 1.028
-0.048665516 -0.028838823 1.028
-0.045961879 -0.028838826 1.028
-0.048665516 -0.026135186 1.028
-0.058578864 -0.020727905 1.028
-0.056776438 -0.020727905 1.028
-0.054974012 -0.020727905 1.028
-0.06038129 -0.018925479 1.028
-0.058578864 -0.018925479 1.028
-0.056776438 -0.018925479 1.028
-0.054072801 -0.018925479 1.028
-0.051369157 -0.018925479 1.028
-0.06038129 -0.017123053 1.028
-0.058578864 -0.01622184 1.028
-0.056776438 -0.01622184 1.028
-0.054373205 -0.016522244 1.028
-0.051369157 -0.017123053 1.028
-0.04067295 -0.04067295 1.031
-0.04067295 -0.038865261 1.031
-0.04067295 -0.037057575 1.031
-0.041576795 -0.031634513 1.031
-0.044288322 -0.028922986 1.031
-0.041576795 -0.028922986 1.031
-0.038865261 -0.028019143 1.031
-0.046096008 -0.026211455 1.031
-0.048807539 -0.02440377 1.031
-0.053326756 -0.015365336 1.031
-0.05151907 -0.015365336 1.031
-0.049711384 -0.016269181 1.031
-0.053326756 -0.013557649 1.031
-0.05151907 -0.013557649 1.031
-0.038978353 -0.040791299 1.034
-0.036258932 -0.040791299 1.034
-0.038978353 -0.038978353 1.034
-0.036258932 -0.038978353 1.034
-0.038978353 -0.036258932 1.034
-0.035956774 -0.03656109 1.034
-0.040791299 -0.033539515 1.034
-0.038978353 -0.033539515 1.034
-0.038978353 -0.031726569 1.034
-0.038978353 -0.029913621 1.034
-0.04351072 -0.026287727 1.034
-0.040791299 -0.026287727 1.034
-0.038978353 -0.026287727 1.034
-0.037165407 -0.026287727 1.034
-0.048949562 -0.022661833 1.034
-0.046230137 -0.024474779 1.034
-0.044417191 -0.024474779 1.034
-0.040791299 -0.024474779 1.034
-0.038978353 -0.024474779 1.034
-0.037165407 -0.024474779 1.034
-0.053481925 -0.020848887 1.034
-0.051668979 -0.020848887 1.034
-0.049856033 -0.020848887 1.034
-0.049856033 -0.019035939 1.034
-0.048043087 -0.01631652 1.034
-0.055294871 -0.0135971 1.034
-0.049856033 -0.0135971 1.034
-0.055294871 -0.011784153 1.034
-0.053481925 -0.011784153 1.034
-0.051668979 -0.011784153 1.034
-0.049856033 -0.011784153 1.034
-0.046408977 -0.022749498 1.038
-0.043375712 -0.023356153 1.0380001
-0.040949099 -0.022749498 1.038
-0.039129138 -0.022749498 1.038
-0.037309177 -0.022749498 1.038
-0.048228938 -0.02092954 1.038
-0.046408977 -0.02092954 1.038
-0.043679036 -0.02092954 1.038
-0.040949099 -0.02092954 1.038
-0.039129138 -0.02092954 1.038
-0.036399197 -0.02092954 1.038
-0.048228938 -0.019109579 1.038
-0.046408977 -0.019109579 1.038
-0.043679036 -0.019109579 1.038
-0.040949099 -0.019109579 1.038
-0.039129138 -0.019109579 1.038
-0.036399197 -0.019109579 1.038
-0.046408977 -0.01637964 1.038
-0.043679032 -0.01637964 1.038
-0.040949099 -0.01637964 1.038
-0.039129138 -0.01728962 1.038
-0.037309177 -0.01728962 1.038
-0.048228938 -0.013649699 1.038
-0.046408977 -0.013649699 1.038
-0.043679036 -0.013649699 1.038
-0.053688817 -0.01000978 1.038
-0.050958879 -0.01000978 1.038
-0.048228938 -0.010919759 1.038
-0.046408977 -0.010919759 1.038
-0.043679036 -0.01091976 1.038
-0.040949099 -0.010919759 1.038
-0.039129138 -0.011829739 1.038
-0.03924223 -0.01551437 1.041
-0.037417009 -0.01551437 1.041
-0.041067448 -0.013689149 1.041
-0.03924223 -0.013689149 1.041
-0.037417009 -0.013689149 1.041
-0.05582964 -0.01006764 1.044
-0.057660121 -0.0082371598 1.044
-0.05582964 -0.0082371598 1.044
-0.053999159 -0.0082371598 1.044
-0.051253442 -0.0082371598 1.044
-0.04850772 -0.0082371598 1.044
-0.046677239 -0.0082371598 1.044
-0.043016277 -0.0082371598 1.044
-0.057660121 -0.0064066797 1.044
-0.05582964 -0.0064066797 1.044
-0.050338201 -0.0064066797 1.044
-0.04850772 -0.0064066797 1.044
-0.063151561 -0.0027457199 1.044
-0.061321083 -0.0027457199 1.044
-0.059490599 -0.0027457199 1.044
-0.063151561 -0.00091523997 1.044
-0.061321083 -0.00091523997 1.044
-0.059490599 -0.00091523997 1.044
-0.059661549 -0.0064250901 1.0470001
-0.054154329 -0.0064250901 1.0470001
-0.052318592 -0.0064250901 1.0470001
-0.046811372 -0.0064250901 1.0470001
-0.06149729 -0.00458935 1.0470001
-0.05843772 -0.0039774366 1.0470001
-0.05599007 -0.0036714799 1.0470001
-0.054154329 -0.0036714799 1.0470001
-0.051400717 -0.0036714796 1.0470001
-0.048647109 -0.0036714799 1.0470001
-0.046811372 -0.0036714799 1.0470001
-0.057825811 -0.00091787003 1.0470001
-0.05599007 -0.00091787003 1.0470001
-0.054154329 -0.00091787003 1.0470001
-0.052318592 -0.00091787003 1.0470001
-0.06149729 0.00091787003 1.0470001
-0.058743678 0.00091787003 1.0470001
-0.05599007 0.00091787003 1.0470001
-0.054154329 0.00091787003 1.0470001
-0.052318592 0.00091787003 1.0470001
-0.057825811 0.00275361 1.0470001
-0.05599007 0.00275361 1.0470001
-0.054154329 0.00275361 1.0470001
-0.050627496 -0.00092049991 1.05
-0.048786495 -0.00092049991 1.05
-0.046945497 -0.00092049991 1.05
-0.065752625 0.046693895 1.087
-0.063846759 0.046693895 1.087
-0.065752625 0.048599768 1.087
-0.063846759 0.048599768 1.087
-0.061156265 0.044911634 1.09
-0.061156265 0.046822764 1.09
-0.061156265 0.048733898 1.09
-0.065934099 0.050645031 1.09
-0.064022966 0.050645031 1.09
-0.088867702 0.054467298 1.09
-0.086956568 0.054467298 1.09
-0.088867702 0.056378435 1.09
-0.086001001 0.056378435 1.09
-0.083134301 0.056378435 1.09
-0.085045435 0.058289569 1.09
-0.083134301 0.058289569 1.09
-0.058503471 0.046035517 1.094
-0.056585323 0.046035517 1.094
-0.058503471 0.048912738 1.094
-0.061380692 0.050830882 1.094
-0.091111965 0.054667175 1.094
-0.091111965 0.056585323 1.094
-0.091111965 0.058503471 1.094
-0.089193814 0.058503471 1.094
-0.087275669 0.058503471 1.094
-0.081521228 0.058503471 1.094
-0.079603083 0.058503471 1.094
-0.081521228 0.060421616 1.094
-0.079603083 0.060421616 1.094
-0.056740493 0.039429836 1.097
-0.054817088 0.039429836 1.097
-0.056740493 0.041353244 1.097
-0.054817088 0.041353244 1.097
-0.056740493 0.043276649 1.097
-0.054817088 0.043276649 1.097
-0.054817088 0.045200057 1.097
-0.056740493 0.049046867 1.097
-0.058663901 0.050970275 1.097
-0.056740493 0.050970275 1.097
-0.068280935 0.054817088 1.097
-0.066357531 0.053855382 1.097
-0.06347242 0.053855378 1.097
-0.060587306 0.05289368 1.097
-0.058663901 0.05289368 1.097
-0.074051157 0.056740493 1.097
-0.071166039 0.056740493 1.097
-0.068280935 0.056740493 1.097
-0.066357531 0.056740493 1.097
-0.064434119 0.056740493 1.097
-0.095208623 0.058663901 1.097
-0.093285218 0.058663901 1.097
-0.077897966 0.058663901 1.097
-0.075974561 0.058663901 1.097
-0.074051157 0.058663901 1.097
-0.071166039 0.058663901 1.097
-0.095208623 0.060587306 1.097
-0.093285218 0.060587306 1.097
-0.091361813 0.060587306 1.097
-0.08847671 0.060587306 1.097
-0.085591599 0.060587306 1.097
-0.083668187 0.060587306 1.097
-0.077897966 0.060587306 1.097
-0.075974561 0.060587306 1.097
-0.085591599 0.063472413 1.097
-0.083668187 0.06347242 1.097
-0.081744783 0.063472413 1.097
-0.079821378 0.06347242 1.097
-0.053086545 0.039573606 1.101
-0.051156126 0.039573606 1.101
-0.049225707 0.038608395 1.101
-0.047295287 0.038608395 1.101
-0.053086545 0.041504025 1.101
-0.051156126 0.041504025 1.101
-0.049225707 0.041504025 1.101
-0.053086545 0.043434445 1.101
-0.055016965 0.047295287 1.101
-0.053086545 0.046330079 1.101
-0.055016965 0.049225707 1.101
-0.053086545 0.049225707 1.101
-0.055016965 0.051156126 1.101
-0.056947388 0.053086545 1.101
-0.062738642 0.056947388 1.101
-0.060808226 0.055982176 1.101
-0.058877803 0.055016965 1.101
-0.056947388 0.055016965 1.101
-0.097486205 0.058877803 1.101
-0.068529904 0.058877803 1.101
-0.066599481 0.058877803 1.101
-0.06370385 0.058877803 1.101
-0.097486205 0.060808226 1.101
-0.074321158 0.060808226 1.101
-0.071425527 0.060808226 1.101
-0.068529904 0.060808226 1.101
-0.09652099 0.063703857 1.101
-0.093625367 0.06370385 1.101
-0.091694944 0.06370385 1.101
-0.08879932 0.063703857 1.101
-0.078182004 0.06370385 1.101
-0.076251581 0.063703857 1.101
-0.074321158 0.06370385 1.101
-0.071425527 0.063703857 1.101
-0.088799313 0.066599481 1.101
-0.085903682 0.066599481 1.101
-0.083973259 0.066599481 1.101
-0.081077635 0.066599481 1.101
-0.078182004 0.066599481 1.101
-0.076251581 0.066599481 1.101
-0.074321158 0.066599481 1.101
-0.072390743 0.066599481 1.101
-0.087834105 0.068529904 1.101
-0.085903682 0.068529904 1.101
-0.083973259 0.068529904 1.101
-0.081077635 0.068529904 1.101
-0.078182004 0.068529904 1.101
-0.076251581 0.068529904 1.101
-0.074321158 0.068529904 1.101
-0.083973259 0.07046032 1.101
-0.081077635 0.07046032 1.101
-0.078182004 0.071425527 1.101
-0.076251581 0.071425527 1.101
-0.074321158 0.07046032 1.101
-0.045529682 0.038748667 1.105
-0.046498399 0.041654814 1.105
-0.051341984 0.043592252 1.105
-0.049404547 0.043592252 1.105
-0.051341984 0.046498399 1.105
-0.051341984 0.049404547 1.105
-0.049404547 0.049404547 1.105
-0.053279415 0.051341984 1.105
-0.051341984 0.051341984 1.105
-0.049404547 0.051341984 1.105
-0.055216849 0.053279415 1.105
-0.053279415 0.053279415 1.105
-0.059091713 0.057154279 1.105
-0.056185566 0.056185566 1.105
-0.053279415 0.055216849 1.105
-0.061029144 0.059091713 1.105
-0.059091713 0.059091713 1.105
-0.057154279 0.059091713 1.105
-0.066841446 0.061029144 1.105
-0.063935302 0.061029144 1.105
-0.061029144 0.061029144 1.105
-0.059091713 0.061029144 1.105
-0.057154279 0.061029144 1.105
-0.06877888 0.063935302 1.105
-0.066841446 0.063935302 1.105
-0.064904019 0.063935302 1.105
-0.097840384 0.066841446 1.105
-0.09590295 0.066841446 1.105
-0.093965515 0.066841446 1.105
-0.092028081 0.066841446 1.105
-0.070716314 0.066841446 1.105
-0.06877888 0.066841446 1.105
-0.066841446 0.066841446 1.105
-0.09590295 0.06877888 1.105
-0.093965515 0.06877888 1.105
-0.091059364 0.06877888 1.105
-0.072653748 0.06877888 1.105
-0.070716314 0.06877888 1.105
-0.06877888 0.06877888 1.105
-0.091059364 0.070716314 1.105
-0.088153213 0.070716314 1.105
-0.086215779 0.070716314 1.105
-0.072653748 0.070716314 1.105
-0.070716314 0.070716314 1.105
-0.06877888 0.070716314 1.105
-0.090090647 0.073622465 1.105
-0.088153213 0.073622465 1.105
-0.086215779 0.073622465 1.105
-0.084278345 0.073622465 1.105
-0.081372201 0.073622473 1.105
-0.07846605 0.074591182 1.105
-0.076528609 0.074591182 1.105
-0.073622465 0.073622465 1.105
-0.070716314 0.072653748 1.105
-0.086215779 0.076528609 1.105
-0.084278345 0.076528609 1.105
-0.081372201 0.076528609 1.105
-0.07846605 0.076528609 1.105
-0.076528609 0.076528609 1.105
-0.074591182 0.076528609 1.105
-0.081372201 0.07846605 1.105
-0.07846605 0.07846605 1.105
-0.076528609 0.07846605 1.105
-0.080403484 0.080403484 1.105
-0.07846605 0.080403484 1.105
-0.076528609 0.080403484 1.105
-0.043710597 0.039825212 1.108
-0.043710597 0.041767906 1.108
-0.047595989 0.043710597 1.108
-0.045653291 0.043710597 1.108
-0.048567332 0.045653291 1.108
-0.048243552 0.048243552 1.108
-0.045653291 0.048567332 1.108
-0.043710597 0.049538679 1.108
-0.047595989 0.051481374 1.108
-0.045653291 0.051481374 1.108
-0.043710597 0.051481374 1.108
-0.051481374 0.053424068 1.108
-0.048567336 0.053424068 1.108
-0.055366758 0.057309452 1.108
-0.053424068 0.057309452 1.108
-0.051481374 0.056338105 1.108
-0.048567332 0.056338105 1.1079999
-0.055366758 0.05925215 1.108
-0.053424068 0.05925215 1.108
-0.051481374 0.05925215 1.108
-0.049538679 0.05925215 1.108
-0.055366758 0.061194837 1.108
-0.053424068 0.061194837 1.108
-0.051481374 0.061194837 1.108
-0.049538679 0.061194837 1.108
-0.063137531 0.063137531 1.108
-0.061194837 0.063137531 1.108
-0.05925215 0.063137531 1.108
-0.057309452 0.063137531 1.108
-0.065080225 0.06702292 1.108
-0.063137531 0.066051573 1.108
-0.061194837 0.065080225 1.108
-0.066051573 0.068965606 1.108
-0.063137531 0.068965606 1.108
-0.096163318 0.070908308 1.108
-0.094220631 0.070908308 1.108
-0.066051573 0.070908308 1.108
-0.063137531 0.070908308 1.108
-0.096163318 0.072851002 1.108
-0.094220631 0.072851002 1.108
-0.092277929 0.073822349 1.108
-0.070908308 0.074793689 1.108
-0.068965606 0.073822349 1.108
-0.06702292 0.072851002 1.108
-0.090335242 0.076736391 1.108
-0.088392548 0.076736391 1.108
-0.072851002 0.076736391 1.108
-0.070908308 0.076736391 1.108
-0.041918691 0.039968982 1.112
-0.039968982 0.039968982 1.112
-0.041918691 0.041918691 1.112
-0.0438684 0.0438684 1.112
-0.041918691 0.0438684 1.112
-0.045818105 0.045818105 1.112
-0.0438684 0.045818105 1.112
-0.041918691 0.045818105 1.112
-0.0438684 0.047767811 1.112
-0.041918691 0.048742663 1.112
-0.039968982 0.048742663 1.112
-0.041918691 0.051667225 1.112
-0.045818105 0.05361693 1.112
-0.0438684 0.05361693 1.112
-0.041918691 0.05361693 1.112
-0.045818105 0.055566635 1.112
-0.0438684 0.055566635 1.112
-0.041918691 0.055566635 1.112
-0.047767811 0.059466053 1.112
-0.045818105 0.0584912 1.112
-0.0438684 0.058491196 1.112
-0.041918691 0.057516344 1.112
-0.047767811 0.061415758 1.112
-0.045818105 0.061415758 1.112
-0.0438684 0.061415758 1.112
-0.055566635 0.063365459 1.112
-0.05361693 0.063365459 1.112
-0.051667225 0.063365459 1.112
-0.049717516 0.063365459 1.112
-0.061415758 0.067264877 1.112
-0.058816157 0.065965079 1.112
-0.061415758 0.069214582 1.112
-0.059466053 0.069214582 1.112
-0.061415758 0.071164295 1.112
-0.059466053 0.071164295 1.112
-0.065315172 0.073114 1.112
-0.063365459 0.073114 1.112
-0.040076815 0.04203178 1.115
-0.038121849 0.04203178 1.115
-0.040076815 0.043986749 1.115
-0.040076815 0.045941714 1.115
-0.047896683 0.063536413 1.115
-0.045941714 0.063536413 1.115
-0.057671517 0.067446344 1.115
-0.055716548 0.065491386 1.115
-0.053761583 0.065491386 1.115
-0.051806614 0.065491386 1.115
-0.049851649 0.065491386 1.115
-0.057671517 0.069401316 1.115
-0.057671517 0.071356282 1.115
-0.048068505 0.065726325 1.119
-0.046106528 0.065726325 1.119
-0.055916425 0.068669297 1.119
-0.053954445 0.068669297 1.119
-0.051338475 0.068342306 1.119
-0.048068505 0.067688309 1.119
-0.046106528 0.067688309 1.119
