# .PCD v0.7 - Point Cloud Data file format
VERSION 0.7
FIELDS x y z
SIZE 4 4 4
TYPE F F F
COUNT 1 1 1
WIDTH 1435
HEIGHT 1
VIEWPOINT 0 0 0 1 0 0 0
POINTS 1435
DATA ascii
0.21426345 0.017507909 0.95099998
0.29930186 0.019175328 0.95099998
0.3009693 0.019175328 0.95099998
0.30347043 0.019175328 0.95099998
0.30597156 0.01834162 0.95099998
0.30819476 0.018063717 0.95100009
0.31097382 0.017507909 0.95099998
0.21593088 0.02084275 0.95099998
0.29846817 0.02084275 0.95099998
0.3009693 0.02084275 0.95099998
0.30347043 0.02084275 0.95099998
0.30597156 0.02084275 0.95099998
0.2175983 0.024177589 0.95099998
0.29096475 0.024177589 0.95099998
0.29346591 0.024177589 0.95099998
0.29596701 0.02334388 0.95099998
0.29763445 0.022510169 0.95099998
0.2175983 0.025845008 0.95099998
0.28929734 0.025845008 0.95099998
0.29096475 0.025845008 0.95099998
0.29263219 0.025845008 0.95099998
0.2175983 0.02834614 0.95099998
0.28596252 0.02834614 0.95099998
0.21593088 0.030847268 0.95099998
0.2175983 0.030847268 0.95099998
0.28346139 0.030847268 0.95099998
0.28596252 0.030847268 0.95099998
0.21342975 0.033348396 0.95100009
0.21593088 0.033348396 0.95099998
0.21843201 0.033348396 0.95100009
0.22093314 0.034182105 0.95099998
0.275958 0.034182105 0.95099998
0.27873704 0.033626303 0.95100009
0.28096026 0.033348396 0.95099998
0.28262767 0.032514688 0.95099998
0.21342975 0.035849527 0.95099998
0.21593088 0.035849527 0.95099998
0.21843201 0.035849527 0.95099998
0.22093314 0.035849527 0.95099998
0.27429056 0.035849527 0.95099998
0.275958 0.035849527 0.95099998
0.21843201 0.037516948 0.95099998
0.22093314 0.038350657 0.95099998
0.26428604 0.039184365 0.95099998
0.26595348 0.039184365 0.95099998
0.26762089 0.039184365 0.95099998
0.27095571 0.037516948 0.95099998
0.22093314 0.040851787 0.95099998
0.25594896 0.040851787 0.95099998
0.25761637 0.040851787 0.95099998
0.26095122 0.040851787 0.95099998
0.26261863 0.040851787 0.95099998
0.22093314 0.043352917 0.95099998
0.25372574 0.043630823 0.95100009
0.25594896 0.042519208 0.95099998
0.22093314 0.045854047 0.95099998
0.2509467 0.045854047 0.95099998
0.25261411 0.045854047 0.95099998
0.22093314 0.047521465 0.95099998
0.24344331 0.049188886 0.95099998
0.24594443 0.049188886 0.95099998
0.24844557 0.049188886 0.95099998
0.2509467 0.047521465 0.95099998
0.22260055 0.050856307 0.95099998
0.24094217 0.050856307 0.95099998
0.24260959 0.050856307 0.95099998
0.24594443 0.050856307 0.95099998
0.24844557 0.050856307 0.95099998
0.22426797 0.052523725 0.95099998
0.22593541 0.054191146 0.95099998
0.22760281 0.054191146 0.95099998
0.23844105 0.053357437 0.95100009
0.24094217 0.053357437 0.95099998
0.24260959 0.053357437 0.95099998
0.23844105 0.055858567 0.95099998
0.24094217 0.055858567 0.95099998
0.22927023 0.058359697 0.95099998
0.23093766 0.059193403 0.95099998
0.23593992 0.059193403 0.95099998
0.23927474 0.057525985 0.95099998
0.24094217 0.057525985 0.95099998
0.23093766 0.060860824 0.95099998
0.23343877 0.060860824 0.95099998
0.23593992 0.060860824 0.95099998
0.23343877 0.062528245 0.95099998
0.250902 -0.081124976 0.954
0.25341102 -0.081124976 0.954
0.24839298 -0.078615949 0.954
0.25062323 -0.078894727 0.954
0.24839298 -0.076106936 0.954
0.25006565 -0.076106936 0.954
0.24839298 -0.073597923 0.954
0.25006565 -0.073597923 0.954
0.24839298 -0.071088895 0.954
0.25006565 -0.071088895 0.954
0.24839298 -0.068579882 0.954
0.25006565 -0.068579882 0.954
0.24839298 -0.066070855 0.954
0.25006565 -0.066070855 0.954
0.24672028 -0.063561842 0.954
0.24839298 -0.063561842 0.954
0.2366842 -0.061052814 0.954
0.23835687 -0.061052814 0.954
0.24086592 -0.061052814 0.954
0.24337494 -0.061052814 0.954
0.24588394 -0.061052814 0.954
0.24839298 -0.061052814 0.954
0.23333883 -0.057707455 0.954
0.2355691 -0.05882258 0.954
0.23835687 -0.05938014 0.954
0.2408659 -0.058543798 0.954
0.24337494 -0.058543798 0.954
0.24588394 -0.05938014 0.954
0.23333883 -0.056034777 0.954
0.23501153 -0.056034777 0.954
0.22664812 -0.052689418 0.954
0.22887836 -0.053804532 0.954
0.23166616 -0.054362096 0.954
0.22413911 -0.051016737 0.954
0.21828473 -0.047671378 0.954
0.22163008 -0.049344059 0.954
0.21828473 -0.0459987 0.954
0.21661206 -0.04348968 0.954
0.21493937 -0.0376353 0.954
0.21410304 -0.035962619 0.954
0.21159402 -0.03261726 0.954
0.2132667 -0.033453599 0.954
0.21159402 -0.030944578 0.954
0.2132667 -0.030944578 0.954
0.21159402 -0.028435558 0.954
0.2132667 -0.029271899 0.954
0.21159402 -0.025926538 0.954
0.21159402 -0.023417518 0.954
0.21159402 -0.020908499 0.954
0.20992133 -0.01756314 0.954
0.21159402 -0.01923582 0.954
0.20992133 -0.015890459 0.954
0.20992133 -0.01421778 0.954
0.21159402 -0.0083633997 0.954
0.21159402 -0.0058543799 0.954
0.21159402 -0.0041816998 0.954
0.2132667 0.00083633995 0.954
0.2132667 0.00334536 0.954
0.2132667 0.0083633997 0.954
0.21493937 0.01421778 0.954
0.21493937 0.01923582 0.954
0.21493937 0.020908499 0.954
0.30860946 0.020908499 0.954
0.31028211 0.020908499 0.954
0.21661206 0.023417519 0.954
0.29857337 0.02425386 0.954
0.30108237 0.023417519 0.954
0.3035914 0.023417518 0.954
0.30610043 0.022581179 0.954
0.30860946 0.022581179 0.954
0.31028211 0.022581179 0.954
0.21661206 0.025926538 0.954
0.29606435 0.025926538 0.954
0.29857337 0.025926538 0.954
0.21661206 0.028435558 0.954
0.28853729 0.028435558 0.954
0.29104629 0.028435558 0.954
0.29355532 0.027599219 0.954
0.21493937 0.030944578 0.954
0.28853729 0.030944578 0.954
0.29104629 0.030944578 0.954
0.28351924 0.034289937 0.954
0.2857495 0.03317482 0.954
0.27850121 0.035962619 0.954
0.28101021 0.035962619 0.954
0.28351924 0.035962619 0.954
0.21995741 0.039307978 0.954
0.27097416 0.039307978 0.954
0.27348319 0.0376353 0.954
0.27599218 0.0376353 0.954
0.27850121 0.0376353 0.954
0.21995741 0.040980656 0.954
0.26010174 0.040980656 0.954
0.2659561 0.040980656 0.954
0.26846513 0.040980656 0.954
0.25675637 0.044326019 0.954
0.25842905 0.042653337 0.954
0.26093808 0.042653337 0.954
0.26344711 0.042653337 0.954
0.26679245 0.042653337 0.954
0.26846513 0.042653337 0.954
0.25592002 0.0459987 0.954
0.22163008 0.049344059 0.954
0.25173831 0.049344059 0.954
0.25341102 0.04850772 0.954
0.24504761 0.051016737 0.954
0.22330277 0.052689418 0.954
0.24588396 0.052689418 0.954
0.24839298 0.052689418 0.954
0.25006565 0.052689418 0.954
0.22664812 0.056034777 0.954
0.22832079 0.056034777 0.954
0.22832079 0.058543798 0.954
0.23835687 0.058543798 0.954
0.22999349 0.061052814 0.954
0.23166616 0.062725499 0.954
0.2366842 0.062725499 0.954
0.24639945 -0.083809324 0.95599991
0.24639942 -0.081295043 0.95599997
0.24891369 -0.081295043 0.95599997
0.24639943 -0.078780763 0.95599991
0.24639942 -0.076266482 0.95599997
0.24639943 -0.07375221 0.95599991
0.23215182 -0.071237922 0.95599997
0.23382802 -0.071237922 0.95599997
0.24639943 -0.071237922 0.95599997
0.23131375 -0.068723649 0.95599991
0.23382802 -0.068723649 0.95599997
0.24639945 -0.068723649 0.95599991
0.23131374 -0.066209368 0.95599997
0.23382802 -0.066209368 0.95599997
0.24723752 -0.066209368 0.95599997
0.23215182 -0.062856995 0.95599997
0.23382802 -0.062856995 0.95599997
0.23634231 -0.063695088 0.95599991
0.23885658 -0.063695088 0.95599997
0.24137086 -0.062856995 0.95599997
0.24388513 -0.063695088 0.95599997
0.24556133 -0.063695088 0.95599997
0.23215182 -0.061180804 0.95599997
0.23382802 -0.061180804 0.95599997
0.23550421 -0.061180804 0.95599997
0.23159312 -0.05838716 0.95599997
0.23382802 -0.059504624 0.95599997
0.22879948 -0.056152247 0.95599997
0.23131374 -0.056152247 0.95599997
0.22209471 -0.052799877 0.95599997
0.22377092 -0.052799877 0.95599997
0.22628519 -0.05363797 0.95599997
0.22125661 -0.05112369 0.95599997
0.21706615 -0.048609409 0.95599997
0.21874234 -0.049447503 0.95599997
0.22041853 -0.049447503 0.95599997
0.21706615 -0.046095129 0.95599997
0.21538997 -0.042742755 0.95599997
0.21538997 -0.041066568 0.95599997
0.21203761 -0.037714198 0.95599997
0.21371379 -0.038552292 0.95599997
0.21538997 -0.039390385 0.95599997
0.21203761 -0.036038011 0.95599997
0.21092014 -0.033803098 0.95599997
0.21036141 -0.031009451 0.95599997
0.21036141 -0.02849517 0.95599997
0.21036141 -0.025980892 0.95599997
0.21036141 -0.023466611 0.95599997
0.21036141 -0.020952333 0.95599997
0.21036141 -0.019276146 0.95599997
0.21036141 -0.012571399 0.95599997
0.21119951 -0.0025142799 0.95599997
0.21119951 -0.00083809328 0.95599997
0.21203761 0.00083809328 0.95599997
0.21203761 0.0033523734 0.95599997
0.21203761 0.0058666528 0.95599997
0.21371379 0.0058666528 0.95599997
0.21203761 0.0083809327 0.95599997
0.21371379 0.010895212 0.95599997
0.31093261 0.019276146 0.95599997
0.31260878 0.019276146 0.95599997
0.21538997 0.023466611 0.95599997
0.30590406 0.024304705 0.95599997
0.30841833 0.024304705 0.95599997
0.21538997 0.025980892 0.95599997
0.30087548 0.025980892 0.95599997
0.30338979 0.025980892 0.95599997
0.21538997 0.02849517 0.95599997
0.29417074 0.029333265 0.95599997
0.29584691 0.027657077 0.95599997
0.29836121 0.027657077 0.95599997
0.30087548 0.027657077 0.95599997
0.28746599 0.034361824 0.95599997
0.28914216 0.032685637 0.95599997
0.29081836 0.032685637 0.95599997
0.28662789 0.036038011 0.95599997
0.21371379 0.037714198 0.95599997
0.21622807 0.037714198 0.95599997
0.21874234 0.039390385 0.95599997
0.27405649 0.039390385 0.95599997
0.2765708 0.039390385 0.95599997
0.27908507 0.039390385 0.95599997
0.28159934 0.037714198 0.95599997
0.28411362 0.037714198 0.95599997
0.21874234 0.041066568 0.95599997
0.27154219 0.041066568 0.95599997
0.21874234 0.042742755 0.95599997
0.22041853 0.043580852 0.95599997
0.25897083 0.044418946 0.95599997
0.2614851 0.044418946 0.95599997
0.26399937 0.044418946 0.95599997
0.26651365 0.043580852 0.95599997
0.26902792 0.044418946 0.95599997
0.27070412 0.042742755 0.95599997
0.22041853 0.046095129 0.95599997
0.25897083 0.046095129 0.95599997
0.22041853 0.047771316 0.95599997
0.25645655 0.048609409 0.95599991
0.25897083 0.047771316 0.95599997
0.22209471 0.05112369 0.95599997
0.25226608 0.05112369 0.95599997
0.25394228 0.05112369 0.95599997
0.2254471 0.054476064 0.95599997
0.24556133 0.054476064 0.95599997
0.24388513 0.056152247 0.95599997
0.22712328 0.058666527 0.95599997
0.24137086 0.059504624 0.95599997
0.22879948 0.061180804 0.95599997
0.23885658 0.061180804 0.95599997
0.22879948 0.062856995 0.95599997
0.23103438 0.063974455 0.95599997
0.23382802 0.064533181 0.95599997
0.22879948 0.066209368 0.95599997
0.23131374 0.066209368 0.95599997
0.23382802 0.066209368 0.95599997
0.22879948 0.067885555 0.95599997
0.23047565 0.067885555 0.95599997
0.24633193 -0.0865945 0.95899999
0.2488541 -0.0865945 0.95899999
0.24465048 -0.084072329 0.95899999
0.24969482 -0.084072329 0.95899999
0.25137627 -0.083231606 0.95899999
0.24380976 -0.081550159 0.95899999
0.24380976 -0.079027988 0.95900005
0.24380976 -0.076505817 0.95899999
0.24380976 -0.073983647 0.95900005
0.23876542 -0.071461476 0.95899999
0.24380976 -0.071461476 0.95899999
0.23624325 -0.068939313 0.95899999
0.23876542 -0.068939321 0.95900005
0.24380976 -0.068939321 0.95900005
0.22867674 -0.066417143 0.95899999
0.23624325 -0.066417143 0.95899999
0.23876542 -0.066417143 0.95899999
0.24128759 -0.066417143 0.95899999
0.24380976 -0.066417143 0.95899999
0.24633193 -0.066417143 0.95899999
0.22867674 -0.06389498 0.95900005
0.23119891 -0.063894972 0.95899999
0.23372108 -0.064735696 0.95899999
0.24128759 -0.064735696 0.95899999
0.24296904 -0.064735696 0.95899999
0.22867674 -0.061372798 0.95899999
0.23119891 -0.061372798 0.95899999
0.2236324 -0.058009904 0.95899999
0.22615458 -0.058009904 0.95899999
0.22867674 -0.058850624 0.95900005
0.23119891 -0.059691351 0.95899999
0.22111022 -0.056328461 0.95899999
0.2236324 -0.056328461 0.95899999
0.22615458 -0.056328461 0.95899999
0.22783601 -0.056328461 0.95899999
0.21942878 -0.052965567 0.95899999
0.22111022 -0.05380629 0.95899999
0.2236324 -0.054647014 0.95899999
0.22615458 -0.054647014 0.95899999
0.21858805 -0.051284123 0.95899999
0.21606588 -0.048761949 0.95899999
0.21438444 -0.046239782 0.95899999
0.21606588 -0.046239782 0.95899999
0.21382396 -0.043437373 0.95900005
0.21606588 -0.044558335 0.95899999
0.21354371 -0.041195441 0.95899999
0.21102154 -0.03867327 0.95899999
0.21270299 -0.039513994 0.95899999
0.2093401 -0.0361511 0.95899999
0.21102154 -0.0361511 0.95899999
0.20877962 -0.033348694 0.95900005
0.20849937 -0.031106761 0.95899999
0.20849937 -0.028584588 0.95900005
0.20849937 -0.026062422 0.95899999
0.2093401 -0.023540251 0.95899999
0.2093401 -0.021018082 0.95899999
0.20849937 -0.018495914 0.95900005
0.20849937 -0.015973743 0.95899999
0.2093401 -0.013451573 0.95899999
0.2093401 -0.010929403 0.95899999
0.21102154 -0.010929403 0.95899999
0.2093401 -0.0084072324 0.95899999
0.21102154 -0.0084072324 0.95899999
0.2093401 -0.0058850627 0.95899999
0.21102154 -0.0058850627 0.95899999
0.2093401 -0.0033628931 0.95899999
0.21102154 -0.0042036166 0.95899999
0.2093401 -0.00084072328 0.95899999
0.2093401 0.00084072328 0.95899999
0.21102154 0.00084072328 0.95899999
0.20765865 0.0042036166 0.95899999
0.21102154 0.0033628931 0.95899999
0.2093401 0.0058850627 0.95899999
0.21102154 0.0058850627 0.95899999
0.21438444 0.013451573 0.95899999
0.21438444 0.015973743 0.95899999
0.21354371 0.018495914 0.95900005
0.21438444 0.021018082 0.95899999
0.21438444 0.023540251 0.95899999
0.21438444 0.026062422 0.95899999
0.30686399 0.026062422 0.95899999
0.30854544 0.026062422 0.95899999
0.21438444 0.028584592 0.95899999
0.29677534 0.029425314 0.95899999
0.29845679 0.029425314 0.95899999
0.30097896 0.029425314 0.95899999
0.30350113 0.028584592 0.95899999
0.29509389 0.031106761 0.95899999
0.29089028 0.034469657 0.95899999
0.29341245 0.03278821 0.95899999
0.29089028 0.0361511 0.95899999
0.21606588 0.039513994 0.95899999
0.21774733 0.039513994 0.95899999
0.28164229 0.039513994 0.95899999
0.28332373 0.039513994 0.95899999
0.28612617 0.038953513 0.95900005
0.28836811 0.03867327 0.95899999
0.29004955 0.037832547 0.95899999
0.21774733 0.041195441 0.95899999
0.2749165 0.041195441 0.95899999
0.27659795 0.041195441 0.95899999
0.28668663 0.041195441 0.95899999
0.28836811 0.041195441 0.95899999
0.21858805 0.043717612 0.95899999
0.26650926 0.044558335 0.95899999
0.27155361 0.044558335 0.95899999
0.27323505 0.042876888 0.95899999
0.21942878 0.046239782 0.95899999
0.26146495 0.046239782 0.95899999
0.26398709 0.046239782 0.95899999
0.26650926 0.046239782 0.95899999
0.26903144 0.046239782 0.95899999
0.21942878 0.047921225 0.95899999
0.22111022 0.049602676 0.95899999
0.25978351 0.049602676 0.95899999
0.26146495 0.047921225 0.95899999
0.25642061 0.051284123 0.95899999
0.22447313 0.054647014 0.95899999
0.22447313 0.056328461 0.95899999
0.22615458 0.056328461 0.95899999
0.22447313 0.058850627 0.95899999
0.22615458 0.058850627 0.95899999
0.22615458 0.061372798 0.95899999
0.22783601 0.061372798 0.95899999
0.24128759 0.061372798 0.95899999
0.22615458 0.063894972 0.95899999
0.22839651 0.064175218 0.95900005
0.23624325 0.064735696 0.95899999
0.23876542 0.063894972 0.95899999
0.24128759 0.063054249 0.95899999
0.22615458 0.066417143 0.95899999
0.22783601 0.066417143 0.95899999
0.23624325 0.066417143 0.95899999
0.22615458 0.06809859 0.95899999
0.22839651 0.069219559 0.95900005
0.23288035 0.06809859 0.95899999
0.24372911 -0.083491974 0.96200001
0.24204239 -0.080961913 0.96200001
0.24119905 -0.07843186 0.96200001
0.23866898 -0.075058445 0.96200001
0.24119906 -0.075901799 0.96199995
0.23698227 -0.073371738 0.96200001
0.23866898 -0.073371738 0.96200001
0.24119905 -0.073371738 0.96200001
0.23698227 -0.071685031 0.96200001
0.24204239 -0.071685031 0.96200001
0.24204239 -0.069154978 0.96200001
0.22348863 -0.063251495 0.96200001
0.2260187 -0.064094841 0.96199995
0.22095856 -0.061564788 0.96200001
0.22348863 -0.061564788 0.96200001
0.2260187 -0.061564788 0.96200001
0.2167418 -0.058191378 0.96200001
0.21842851 -0.058191378 0.96200001
0.22095855 -0.059034735 0.96199995
0.22348863 -0.059878085 0.96200001
0.2260187 -0.059878085 0.96200001
0.2167418 -0.056504674 0.96200001
0.21842851 -0.056504674 0.96200001
0.22011521 -0.056504674 0.96200001
0.21617958 -0.053693496 0.96200001
0.21842851 -0.053974614 0.96200001
0.22011521 -0.054817967 0.96200001
0.21589845 -0.051444549 0.96200001
0.21336839 -0.048071139 0.96200001
0.21505509 -0.048914492 0.96200001
0.21168168 -0.046384431 0.96200001
0.21336839 -0.046384431 0.96200001
0.20999499 -0.043854371 0.96200001
0.21168168 -0.043854371 0.96200001
0.21336839 -0.044697724 0.96200001
0.20915163 -0.041324314 0.96200001
0.21168168 -0.041324314 0.96200001
0.20915161 -0.038794253 0.96199995
0.20662156 -0.036264192 0.96200001
0.20830826 -0.036264192 0.96200001
0.20662156 -0.033734135 0.96200001
0.20830826 -0.034577485 0.96200001
0.20662156 -0.031204073 0.96200001
0.20493485 -0.028674014 0.96200001
0.20662156 -0.028674014 0.96200001
0.20662156 -0.026143953 0.96200001
0.20662156 -0.023613892 0.96200001
0.20830826 -0.023613892 0.96200001
0.20662156 -0.021083834 0.96200001
0.20830826 -0.021083834 0.96200001
0.20662156 -0.018553771 0.96200001
0.20830826 -0.013493653 0.96200001
0.20662156 -0.010963594 0.96200001
0.20830826 -0.010963594 0.96200001
0.20662156 -0.0084335329 0.96200001
0.20830826 -0.0084335329 0.96200001
0.20662156 -0.0059034731 0.96200001
0.20830826 -0.0059034731 0.96200001
0.20662156 -0.0033734131 0.96200001
0.20830826 -0.0033734133 0.96200001
0.20493485 -0.00084335334 0.96200001
0.20662156 -0.00084335334 0.96200001
0.20830826 -0.00084335334 0.96200001
0.20830826 0.00084335334 0.96200001
0.20662156 0.00253006 0.96200001
0.20999499 0.00253006 0.96200001
0.20999499 0.0092768865 0.96200001
0.21168168 0.0084335329 0.96200001
0.21336839 0.010963594 0.96200001
0.21336839 0.013493653 0.96200001
0.21336839 0.016023712 0.96200001
0.21168168 0.018553771 0.96200001
0.21168168 0.021083834 0.96200001
0.21336839 0.021083834 0.96200001
0.21336839 0.023613892 0.96200001
0.21336839 0.026143953 0.96200001
0.31119737 0.026143953 0.96200001
0.21168168 0.028674014 0.96200001
0.21336839 0.028674014 0.96200001
0.30613723 0.028674014 0.96200001
0.3086673 0.028674014 0.96199995
0.31119737 0.028674014 0.96200001
0.21336839 0.031204073 0.96200001
0.21505509 0.031204073 0.96200001
0.29854709 0.031204073 0.96200001
0.30107713 0.031204073 0.96200001
0.3036072 0.031204073 0.96200001
0.30613723 0.031204073 0.96200001
0.3086673 0.031204073 0.96200001
0.31119737 0.031204073 0.96200001
0.31288409 0.031204073 0.96200001
0.2943303 0.034577485 0.96200001
0.29601702 0.032890782 0.96200001
0.29854709 0.033734135 0.96199995
0.3086673 0.032890782 0.96200001
0.31119737 0.032890782 0.96200001
0.31288409 0.032890782 0.96200001
0.2943303 0.036264192 0.96200001
0.29095691 0.039637607 0.96200001
0.29264358 0.038794253 0.96200001
0.27914995 0.041324314 0.96200001
0.28083664 0.041324314 0.96200001
0.28336668 0.041324314 0.96200001
0.28589678 0.041324314 0.96200001
0.29095691 0.041324314 0.96200001
0.29264358 0.041324314 0.96200001
0.21842851 0.044697724 0.96200001
0.27408981 0.044697724 0.96200001
0.27661991 0.043854371 0.96199995
0.27914995 0.043854371 0.96200001
0.28083664 0.043854371 0.96200001
0.28336668 0.043011017 0.96200001
0.28589678 0.043011017 0.96200001
0.28842682 0.043011017 0.96200001
0.21842851 0.046384431 0.96200001
0.27240312 0.046384431 0.96200001
0.21842851 0.048914492 0.96200001
0.22011521 0.049757846 0.96200001
0.26228288 0.049757846 0.96200001
0.2639696 0.048914492 0.96200001
0.26621854 0.048633378 0.96200001
0.22180191 0.051444549 0.96200001
0.25890946 0.051444549 0.96200001
0.26059616 0.051444549 0.96200001
0.22348863 0.053974614 0.96200001
0.25384936 0.053131256 0.96200001
0.25637943 0.053131256 0.96200001
0.25890946 0.053131256 0.96200001
0.26059616 0.053131256 0.96200001
0.22180191 0.056504674 0.96200001
0.22348863 0.056504674 0.96200001
0.24710251 0.056504674 0.96200001
0.22180191 0.058191378 0.96200001
0.22348863 0.059034731 0.96200001
0.24541582 0.058191378 0.96200001
0.22348863 0.061564788 0.96200001
0.22517534 0.061564788 0.96200001
0.22348863 0.064094849 0.96200001
0.22517534 0.064094849 0.96200001
0.2403557 0.064938203 0.96200001
0.22348863 0.06662491 0.96200001
0.22517534 0.06662491 0.96200001
0.23866898 0.06662491 0.96200001
0.22348863 0.069154978 0.96200001
0.22573757 0.069436096 0.96200001
0.23192218 0.069998324 0.96200001
0.23360886 0.069998324 0.96200001
0.23585781 0.06887386 0.96200001
0.22854874 0.071685031 0.96200001
0.23107882 0.071685031 0.96200001
0.23360886 0.071685031 0.96200001
0.23529558 0.071685031 0.96200001
0.22854874 0.073371738 0.96200001
0.23023546 0.073371738 0.96200001
0.21719241 -0.060002569 0.96399999
0.21888261 -0.060847677 0.96399999
0.21381198 -0.058312356 0.96399999
0.21550219 -0.058312356 0.96399999
0.21381198 -0.05662214 0.96399999
0.21550219 -0.05662214 0.96399999
0.21127665 -0.054086827 0.96399987
0.21381198 -0.054086823 0.96399999
0.21550219 -0.054931931 0.96399999
0.21127665 -0.051551506 0.96399999
0.21381198 -0.051551506 0.96399999
0.21127665 -0.049016181 0.96399987
0.21381198 -0.04986129 0.96399999
0.20705111 -0.046480864 0.96399999
0.20874134 -0.046480864 0.96399999
0.21043155 -0.046480864 0.96399999
0.20705111 -0.043945543 0.96399999
0.20874134 -0.043945543 0.96399999
0.20705111 -0.041410226 0.96399999
0.20648772 -0.038593207 0.96399993
0.2053609 -0.036339585 0.96399999
0.2053609 -0.033804268 0.96399999
0.2053609 -0.031268943 0.96399999
0.2053609 -0.026198305 0.96399999
0.2053609 -0.024508093 0.96399999
0.20705111 -0.016057026 0.96399999
0.20648772 -0.013240005 0.96399993
0.2036707 -0.010986386 0.96399999
0.2053609 -0.010986386 0.96399999
0.2036707 -0.008451066 0.96399999
0.2053609 -0.0084510669 0.96399999
0.2036707 -0.0059157466 0.96399999
0.2053609 -0.0059157466 0.96399999
0.2036707 -0.004225533 0.96399999
0.2053609 -0.004225533 0.96399999
0.31353456 0.024508093 0.96399999
0.31522477 0.024508093 0.96399999
0.31353456 0.026198305 0.96399999
0.31606987 0.026198305 0.96399999
0.31353456 0.028733626 0.96399999
0.31578818 0.028451925 0.96399993
0.29663241 0.034649372 0.96399999
0.30170307 0.033804268 0.96399999
0.30339327 0.033804268 0.96399999
0.30592859 0.033804268 0.96399987
0.3084639 0.034649372 0.96399999
0.31099924 0.034649372 0.96399999
0.29663241 0.036339585 0.96399999
0.29832265 0.036339585 0.96399999
0.29494223 0.038874906 0.96399999
0.29663241 0.03972001 0.96399999
0.29494223 0.041410226 0.96399999
0.29663241 0.041410226 0.96399999
0.28395581 0.044790652 0.96399999
0.28649113 0.044790652 0.96399999
0.28902647 0.044790652 0.96399999
0.29156178 0.043945543 0.96399999
0.29325199 0.043945543 0.96399999
0.27465963 0.046480864 0.96399999
0.27634987 0.046480864 0.96399999
0.27888519 0.046480864 0.96399999
0.2814205 0.046480864 0.96399999
0.28395581 0.046480864 0.96399999
0.28649113 0.046480864 0.96399999
0.26902562 0.049297884 0.96399993
0.27127922 0.049016185 0.96399999
0.27381456 0.048171077 0.96399999
0.27634987 0.048171077 0.96399999
0.27888519 0.048171077 0.96399999
0.2814205 0.048171077 0.96399999
0.28311074 0.048171077 0.96399999
0.21888261 0.051551506 0.96399999
0.22057283 0.051551506 0.96399999
0.26367325 0.051551506 0.96399999
0.26620859 0.051551506 0.96399999
0.2687439 0.051551506 0.96399999
0.27127922 0.051551506 0.96399999
0.22226304 0.053241715 0.96399999
0.24930646 0.054931931 0.96399999
0.25099665 0.054931931 0.96399999
0.25860262 0.054931931 0.96399999
0.26113796 0.054931931 0.96399999
0.26367325 0.053241715 0.96399999
0.26620859 0.053241715 0.96399999
0.2687439 0.054086827 0.96399987
0.27127922 0.053241715 0.96399999
0.24930646 0.05662214 0.96399999
0.25099665 0.05662214 0.96399999
0.24846135 0.058312356 0.96399999
0.25099665 0.058312356 0.96399999
0.22226304 0.060847677 0.96399999
0.22226304 0.063382991 0.96399999
0.24423583 0.063382991 0.96399999
0.22226304 0.065918311 0.96399999
0.24085538 0.066763423 0.96399999
0.24339072 0.065918319 0.96399987
0.23916516 0.06845364 0.96399999
0.24085538 0.06845364 0.96399999
0.22395325 0.071834065 0.96399999
0.22648859 0.071834065 0.96399999
0.23747496 0.070988953 0.96399999
0.23916516 0.070988953 0.96399999
0.24085538 0.070988953 0.96399999
0.23240432 0.073524274 0.96399999
0.23409453 0.073524274 0.96399999
0.23578474 0.073524274 0.96399999
0.20939095 -0.055102881 0.96700001
0.21108642 -0.056798354 0.96700001
0.21278189 -0.056798354 0.96700001
0.20854321 -0.053407408 0.96700001
0.20430453 -0.050016463 0.96700001
0.206 -0.050864197 0.96700001
0.20854323 -0.050864201 0.96700001
0.20430453 -0.048320986 0.96700001
0.206 -0.048320986 0.96700001
0.20854321 -0.048320986 0.96700001
0.20345679 -0.046625517 0.96700001
0.206 -0.046625517 0.96700001
0.2034568 -0.044082303 0.96700001
0.206 -0.044082306 0.96700001
0.20345679 -0.041539095 0.96700001
0.206 -0.041539095 0.96700001
0.20430453 -0.038995884 0.96700001
0.206 -0.039843623 0.96700001
0.20430453 -0.036452677 0.96700001
0.20430453 -0.033909462 0.96700001
0.20430453 -0.031366255 0.96700001
0.20430453 -0.028823044 0.96700001
0.20430453 -0.026279837 0.96700001
0.20430453 -0.024584362 0.96700001
0.206 -0.02288889 0.96700001
0.206 -0.021193415 0.96700001
0.206 -0.018650208 0.96700001
0.206 -0.016106997 0.96700001
0.20430453 -0.012716049 0.96700001
0.206 -0.014411522 0.96700001
0.206 -0.0025432098 0.96700001
0.21278189 0.016106997 0.96700001
0.21108642 0.018650208 0.96700001
0.21278189 0.02288889 0.96700001
0.3009465 0.036452677 0.96700001
0.30264196 0.036452677 0.96700001
0.29840329 0.038148146 0.96700001
0.21786831 0.044930041 0.96700001
0.21786831 0.046625517 0.96700001
0.21786831 0.048320986 0.96700001
0.28568724 0.048320986 0.96700001
0.21786831 0.050864197 0.96700001
0.27381894 0.050016463 0.96700001
0.27636212 0.050016463 0.96700001
0.27890536 0.050016463 0.96700001
0.2195638 0.053407408 0.96700001
0.22125927 0.053407408 0.96700001
0.2195638 0.055102881 0.96700001
0.22125927 0.055950616 0.96700001
0.22295474 0.055102881 0.96700001
0.25347325 0.056798354 0.96700001
0.25686422 0.055950619 0.96700001
0.25855967 0.056798354 0.96700001
0.26110286 0.056798354 0.96700001
0.2636461 0.055102881 0.96700001
0.26618928 0.055102881 0.96700001
0.26873252 0.056798354 0.96700001
0.2712757 0.055950616 0.96700001
0.22125927 0.058493827 0.96700001
0.25347325 0.058493827 0.96700001
0.25855967 0.058493827 0.96700001
0.26025513 0.058493827 0.96700001
0.22125927 0.061037038 0.96700001
0.24499589 0.061884776 0.96700001
0.24669136 0.061037038 0.96700001
0.24838683 0.061037038 0.96700001
0.25064749 0.060754459 0.96700001
0.22125927 0.063580252 0.96700001
0.24669136 0.063580252 0.96700001
0.22125927 0.066123456 0.96700001
0.22295474 0.068666667 0.96700001
0.24414815 0.068666667 0.96700001
0.22295474 0.071209878 0.96700001
0.24414816 0.071209878 0.96700001
0.2246502 0.073753081 0.96700001
0.22634567 0.073753081 0.96700001
0.23906174 0.073753081 0.96700001
0.24160494 0.073753081 0.96700001
0.23397532 0.075448565 0.96700001
0.23651852 0.075448565 0.96700001
0.21004057 -0.056974567 0.97000003
0.20153689 -0.04506943 0.97000003
0.19983616 -0.043368701 0.97000003
0.20153689 -0.043368701 0.97000003
0.19983616 -0.041667968 0.97000003
0.20153689 -0.041667968 0.97000003
0.19983616 -0.039116867 0.97000003
0.20153689 -0.039116867 0.97000003
0.20323762 -0.039116867 0.97000003
0.20153689 -0.036565769 0.97000003
0.20323762 -0.036565769 0.97000003
0.20153689 -0.034014665 0.97000003
0.20323762 -0.034014665 0.97000003
0.20153689 -0.031463563 0.97000003
0.20323762 -0.031463563 0.97000003
0.20323762 -0.028912468 0.97000003
0.20323762 -0.026361367 0.97000003
0.20380454 -0.023526814 0.97000015
0.20493837 -0.021259166 0.97000003
0.20493837 -0.018708067 0.97000003
0.204088 -0.016156966 0.97000003
0.20380454 -0.013889322 0.97000015
0.20323762 -0.011054766 0.97000003
0.20323762 -0.0093540326 0.97000003
0.21344203 0.013605866 0.97000003
0.2117413 0.016156966 0.97000003
0.21004057 0.018708067 0.97000003
0.2117413 0.021259166 0.97000003
0.2117413 0.023810267 0.97000003
0.21344203 0.024660634 0.97000003
0.30131325 0.039400321 0.97000015
0.30358088 0.038266499 0.97000003
0.3010298 0.041667968 0.97000003
0.21854423 0.053573098 0.97000003
0.21854423 0.056124203 0.97000003
0.22024497 0.056974567 0.97000003
0.25425962 0.055273835 0.97000003
0.25596035 0.056124203 0.97000003
0.26446402 0.056974567 0.97000003
0.26616478 0.056974567 0.97000003
0.26786551 0.056974567 0.97000003
0.2729677 0.056974567 0.97000003
0.2168435 0.058675297 0.97000003
0.21854423 0.058675297 0.97000003
0.22024497 0.058675297 0.97000003
0.25596035 0.058675297 0.97000003
0.2576611 0.058675297 0.97000003
0.26361364 0.058675297 0.97000003
0.26616478 0.058675297 0.97000003
0.26871586 0.058675297 0.97000003
0.27126697 0.058675297 0.97000003
0.2729677 0.058675297 0.97000003
0.2168435 0.060376033 0.97000003
0.21854423 0.061226405 0.97000003
0.22024497 0.061226401 0.97000003
0.25369272 0.061509859 0.97000015
0.25596035 0.060376033 0.97000003
0.25851148 0.060376033 0.97000003
0.26106256 0.060376033 0.97000003
0.26276329 0.060376033 0.97000003
0.26871586 0.060376033 0.97000003
0.27126697 0.060376033 0.97000003
0.21854423 0.063777499 0.97000003
0.22024497 0.063777499 0.97000003
0.24915744 0.063777499 0.97000003
0.25085816 0.063777499 0.97000003
0.25255889 0.063777499 0.97000003
0.21854423 0.065478235 0.97000003
0.22024497 0.0663286 0.97000003
0.2474567 0.067178965 0.97000003
0.22109535 0.068879694 0.97000003
0.2474567 0.068879694 0.97000003
0.2219457 0.071430802 0.97000003
0.2219457 0.073981896 0.97000003
0.22364642 0.073981896 0.97000003
0.22874862 0.073981896 0.97000003
0.22364642 0.075682633 0.97000003
0.22619754 0.075682633 0.97000003
0.22874862 0.075682633 0.97000003
0.19874822 -0.038384847 0.97299999
0.19874822 -0.036678854 0.97299999
0.20045421 -0.036678854 0.97299999
0.19874822 -0.034119867 0.97299999
0.20045421 -0.034119867 0.97299999
0.20045421 -0.031560875 0.97299999
0.20216019 -0.029001886 0.97299999
0.20216019 -0.026442895 0.97299999
0.20216019 -0.023883905 0.97299999
0.2038662 -0.021324914 0.97299999
0.2038662 -0.018765926 0.97299999
0.21154316 0.011088956 0.97299999
0.21410215 0.011088956 0.97299999
0.20898417 0.013647947 0.97299999
0.21154316 0.013647947 0.97299999
0.20898417 0.016206935 0.97299999
0.21069016 0.016206935 0.97299999
0.20898417 0.018765926 0.97299999
0.20898417 0.021324914 0.97299999
0.21069016 0.021324914 0.97299999
0.21069016 0.023030909 0.97299999
0.30622581 0.036678854 0.97299999
0.30793178 0.036678854 0.97299999
0.30622581 0.038384847 0.97299999
0.30793178 0.038384847 0.97299999
0.3045198 0.040943839 0.97299999
0.30622581 0.040943839 0.97299999
0.30793178 0.040943839 0.97299999
0.21836713 0.04350283 0.97299999
0.3036668 0.04350283 0.97299999
0.30622581 0.04350283 0.97299999
0.30793178 0.04350283 0.97299999
0.21751413 0.046061821 0.97299999
0.21751413 0.048620805 0.97299999
0.21580814 0.052032795 0.97299999
0.21751413 0.051179796 0.97299999
0.21580814 0.053738788 0.97299999
0.21751413 0.053738788 0.97299999
0.21580814 0.056297779 0.97299999
0.21751413 0.056297779 0.97299999
0.21580814 0.058856767 0.97299999
0.21580814 0.061415754 0.97299999
0.21751413 0.062268753 0.97299999
0.25675198 0.062268753 0.97299999
0.25845799 0.062268753 0.97299999
0.26101696 0.062268753 0.97299999
0.26357594 0.062268753 0.97299999
0.26613495 0.061415754 0.97299999
0.26869392 0.062268753 0.97299999
0.27125293 0.062268753 0.97299999
0.27381194 0.061415754 0.97299999
0.21580814 0.063974746 0.97299999
0.21751413 0.063974746 0.97299999
0.25589898 0.063974746 0.97299999
0.25845799 0.063974746 0.97299999
0.26101696 0.063974746 0.97299999
0.26357594 0.063974746 0.97299999
0.26613495 0.063974746 0.97299999
0.26869392 0.063974746 0.97299999
0.27125293 0.063974746 0.97299999
0.27381194 0.063974746 0.97299999
0.21580814 0.065680735 0.97299999
0.21836713 0.066533729 0.97299999
0.24907501 0.065680735 0.97299999
0.251634 0.065680735 0.97299999
0.25333998 0.065680735 0.97299999
0.25504598 0.065680735 0.97299999
0.25845799 0.065680735 0.97299999
0.26016396 0.065680735 0.97299999
0.26698795 0.065680735 0.97299999
0.26869392 0.066533729 0.97299999
0.27125293 0.066533737 0.97299999
0.27381194 0.065680735 0.97299999
0.21922013 0.069092721 0.97299999
0.21922013 0.070798725 0.97299999
0.22092614 0.070798725 0.97299999
0.24822202 0.070798725 0.97299999
0.24481004 0.074210711 0.97299999
0.24822202 0.072504714 0.97299999
0.23969205 0.0759167 0.97299999
0.24139805 0.0759167 0.97299999
0.22433811 0.077622689 0.97299999
0.2260441 0.077622689 0.97299999
0.19915675 -0.040173247 0.97500002
0.19915675 -0.031625748 0.97500002
0.20086624 -0.0290615 0.97500002
0.20086624 -0.026497249 0.97500002
0.20086624 -0.023932999 0.97500002
0.20257576 -0.021368749 0.97500002
0.20257576 -0.0188045 0.97500002
0.20257576 -0.016240248 0.97500002
0.20257576 -0.013676 0.97500002
0.20257576 -0.011111749 0.97500002
0.20941374 0.02307825 0.97500002
0.21112326 0.02478775 0.97500002
0.31112897 0.036754247 0.97500002
0.31369326 0.036754247 0.97500002
0.31112897 0.038463749 0.97500002
0.311129 0.041028 0.97499996
0.21625175 0.047011249 0.97500002
0.21625175 0.048720747 0.97500002
0.21625175 0.050430249 0.97500002
0.28463176 0.051284999 0.97500002
0.28634125 0.052139752 0.97500002
0.21454224 0.05384925 0.97500002
0.28463176 0.05384925 0.97500002
0.28634125 0.05384925 0.97500002
0.21454224 0.056413498 0.97500002
0.21454224 0.058977749 0.97500002
0.21454224 0.061542001 0.97500002
0.25727975 0.065815754 0.97500002
0.26582724 0.065815754 0.97500002
0.21796124 0.068379998 0.97500002
0.24702273 0.074363254 0.97500002
0.24873224 0.074363254 0.97500002
0.24360374 0.076072745 0.97500002
0.24616799 0.076072745 0.97500002
0.24360374 0.077782243 0.97500002
0.24616799 0.077782243 0.97500002
0.19634001 -0.035152577 0.97799999
0.19805478 -0.035152577 0.97799999
0.19634001 -0.033437818 0.97799999
0.19805478 -0.033437818 0.97799999
0.19634001 -0.03172306 0.97799999
0.19891214 -0.030865679 0.97799999
0.19976953 -0.028293537 0.97799999
0.19976953 -0.026578778 0.97799999
0.19976953 -0.024006639 0.97799999
0.20148429 -0.021434499 0.97799999
0.20148429 -0.018862359 0.97799999
0.20148429 -0.016290218 0.97799999
0.20148429 -0.0128607 0.97799999
0.20148429 -0.011145939 0.97799999
0.21005809 0.024864018 0.97799999
0.21177284 0.026578778 0.97799999
0.21348761 0.026578778 0.97799999
0.21520236 0.026578778 0.97799999
0.21691713 0.041154236 0.97799999
0.21863189 0.041154236 0.97799999
0.22034664 0.042011619 0.97799999
0.21691713 0.043726377 0.97799999
0.21577397 0.046012726 0.97800004
0.21520236 0.048870657 0.97799999
0.21348761 0.051442798 0.97799999
0.21520236 0.051442802 0.97799999
0.28379276 0.051442798 0.97799999
0.21348761 0.054014936 0.97799999
0.28379276 0.054014936 0.97799999
0.21348761 0.056587078 0.97799999
0.2769337 0.056587078 0.97799999
0.21348761 0.059159219 0.97799999
0.2769337 0.059159219 0.97799999
0.21691713 0.068590403 0.97799999
0.24949756 0.07630682 0.97799999
0.19694228 -0.030100347 0.98100001
0.19866231 -0.030100347 0.98100001
0.19866231 -0.028380331 0.98100001
0.19866231 -0.026660308 0.98100001
0.19866231 -0.024940288 0.98100001
0.20898242 0.016340189 0.98100001
0.20898242 0.01892022 0.98100001
0.20898242 0.021500248 0.98100001
0.20898242 0.024080278 0.98100001
0.21070245 0.026660308 0.98100001
0.2158625 0.04386051 0.98100001
0.21414247 0.046440542 0.98100001
0.21414247 0.049020566 0.98100001
0.21242246 0.051600598 0.98100001
0.27864325 0.052460607 0.98100001
0.28122324 0.052460607 0.98100001
0.28294328 0.052460607 0.98100001
0.21242246 0.05418063 0.98100001
0.27864322 0.05418063 0.98100001
0.28122324 0.05418063 0.98100001
0.28294328 0.05418063 0.98100001
0.28982338 0.05418063 0.98100001
0.21242246 0.055900648 0.98100001
0.27950326 0.055900648 0.98100001
0.28122324 0.055900648 0.98100001
0.28896338 0.055900648 0.98100001
0.21242246 0.058480676 0.98100001
0.21414247 0.061060708 0.98100001
0.21414247 0.063640729 0.98100001
0.2158625 0.064500742 0.98100001
0.22102256 0.083420962 0.98100001
0.22360259 0.083420962 0.98100001
0.22102256 0.085140988 0.98100001
0.22360259 0.086001001 0.98100001
0.22360259 0.088581026 0.98100001
0.19926983 -0.02329128 0.98400003
0.19926983 -0.021566 0.98400003
0.20099512 -0.021566 0.98400003
0.20099512 -0.019840719 0.98400003
0.20272039 -0.01466488 0.98400003
0.20904642 0.014089787 0.98400009
0.20617096 0.01639016 0.98400003
0.20789625 0.01639016 0.98400003
0.20617096 0.01897808 0.98400003
0.20789625 0.01897808 0.98400003
0.20617096 0.021566 0.98400003
0.20789625 0.021566 0.98400003
0.20789625 0.02329128 0.98400003
0.2096215 0.02674184 0.98400003
0.21134679 0.028467119 0.98400003
0.21393472 0.028467119 0.98400003
0.21393472 0.03191768 0.98400003
0.21652263 0.03191768 0.98400003
0.21393472 0.033642959 0.98400003
0.21652263 0.033642959 0.98400003
0.21824792 0.033642959 0.98400003
0.2096215 0.03709352 0.98400003
0.21134679 0.03709352 0.98400003
0.21393472 0.036230881 0.98400009
0.21652263 0.036230881 0.98400003
0.2096215 0.038818799 0.98400003
0.21134679 0.038818799 0.98400003
0.21393472 0.038818799 0.98400003
0.21652263 0.038818799 0.98400003
0.21134679 0.040544078 0.98400003
0.21393472 0.041406717 0.98400009
0.21652263 0.041406717 0.98400003
0.21134679 0.043994639 0.98400003
0.21393472 0.043994639 0.98400003
0.21134679 0.046582557 0.98400003
0.21307208 0.046582557 0.98400003
0.21134679 0.049170479 0.98400003
0.21307208 0.049170479 0.98400003
0.21134679 0.050895758 0.98400003
0.21134679 0.05348368 0.98400003
0.21134679 0.056071602 0.98400003
0.28380856 0.056071602 0.98400003
0.28639647 0.056071602 0.98400003
0.21134679 0.058659516 0.98400003
0.28122064 0.058659513 0.98400009
0.28380856 0.05865952 0.98400003
0.28639647 0.058659516 0.98400009
0.28898439 0.05865952 0.98400003
0.29070967 0.05865952 0.98400003
0.21307208 0.061247434 0.98400003
0.2786327 0.061247434 0.98400003
0.28122064 0.061247434 0.98400003
0.28380856 0.061247434 0.98400003
0.28639647 0.061247434 0.98400003
0.28898439 0.061247434 0.98400003
0.2786327 0.06383536 0.98400003
0.28093311 0.06354782 0.98400009
0.28380856 0.062972717 0.98400003
0.28553385 0.062972717 0.98400003
0.21479736 0.066423282 0.98400003
0.21652263 0.066423282 0.98400003
0.2786327 0.066423282 0.98400003
0.28035802 0.066423282 0.98400003
0.21479736 0.068148561 0.98400003
0.21652263 0.068148561 0.98400003
0.21997321 0.083676085 0.98400003
0.21997321 0.085401356 0.98400003
0.22169848 0.087126635 0.98400003
0.22169848 0.088851921 0.98400003
0.22687431 0.088851921 0.98400003
0.22169848 0.091439836 0.98400003
0.22342375 0.091439836 0.98400003
0.22601168 0.091439836 0.98400009
0.22859959 0.092302479 0.98400003
0.23118752 0.092302479 0.98400003
0.23377544 0.092302479 0.98400003
0.23665091 0.091727391 0.98400009
0.23895127 0.091439836 0.98400003
0.24125165 0.091727391 0.98400009
0.22342375 0.094027758 0.98400003
0.22601166 0.094027758 0.98400003
0.22859959 0.094027758 0.98400003
0.23118752 0.094027758 0.98400003
0.23377544 0.094027758 0.98400003
0.23636335 0.094027758 0.98400003
0.23895127 0.094027758 0.98400003
0.24153918 0.094027758 0.98400003
0.23895127 0.095753044 0.98400003
0.24067655 0.095753044 0.98400003
0.2016079 -0.018170668 0.98699999
0.2016079 -0.016440129 0.98699999
0.20679951 0.0095179696 0.98699999
0.20853007 0.0095179696 0.98699999
0.21112588 0.0086526992 0.98699999
0.21372168 0.0086526992 0.98699999
0.20679951 0.011248509 0.98699999
0.20853007 0.011248509 0.98699999
0.21112588 0.011248509 0.98699999
0.20622265 0.014132744 0.98699999
0.20853007 0.01297905 0.98699999
0.20506898 0.016440129 0.98699999
0.20506898 0.019035939 0.98699999
0.20506898 0.021631747 0.98699999
0.20593424 0.023362288 0.98699999
0.20679951 0.025092829 0.98699999
0.20853007 0.0259581 0.98699999
0.2102606 0.028553909 0.98699999
0.2111259 0.031149721 0.98699999
0.21372168 0.030284448 0.98699999
0.21545222 0.030284448 0.98699999
0.21112587 0.033745527 0.98699999
0.21112588 0.035476066 0.98699999
0.21112587 0.041532956 0.98699999
0.2102606 0.045859307 0.98699999
0.2102606 0.048455119 0.98699999
0.2102606 0.051050927 0.98699999
0.2102606 0.053646736 0.98699999
0.2102606 0.056242548 0.98699999
0.28380853 0.06489525 0.98699999
0.28640434 0.06489525 0.98699999
0.2881349 0.064029977 0.98699999
0.28380853 0.066625789 0.98699999
0.28640434 0.066625789 0.98699999
0.27948219 0.068356328 0.98699999
0.28121275 0.068356328 0.98699999
0.28380853 0.068356328 0.98699999
0.2189133 0.083931185 0.98699999
0.2189133 0.08652699 0.98699999
0.22064383 0.087392263 0.98699999
0.22929654 0.089122802 0.98699999
0.22929654 0.090853348 0.98699999
0.23102707 0.090853348 0.98699999
0.23362288 0.096044965 0.98699999
0.23621869 0.096044965 0.98699999
0.23794922 0.096044965 0.98699999
0.23362288 0.097775504 0.98699999
0.23881449 0.097775504 0.98699999
0.20201644 -0.014739396 0.98900002
0.20375048 -0.0095372573 0.98900002
0.20548452 -0.0095372573 0.98900002
0.20635155 0.0043351166 0.98900002
0.20635155 0.0060691633 0.98900002
0.20606254 0.0083812252 0.98900002
0.20548452 0.011271304 0.98900002
0.20548452 0.01300535 0.98900002
0.20375048 0.016473442 0.98900002
0.20375048 0.019074513 0.98900002
0.20375048 0.021675583 0.98900002
0.20635155 0.0260107 0.98900002
0.20895262 0.02861177 0.98900002
0.20895262 0.03121284 0.98900002
0.20895262 0.036414977 0.98900002
0.20895262 0.039016049 0.98900002
0.21068667 0.042484142 0.98900002
0.21068667 0.04421819 0.98900002
0.28871876 0.066760793 0.98900002
0.22109094 0.091037445 0.98900002
0.22109094 0.0927715 0.98900002
0.22889414 0.096239582 0.98900002
0.23149523 0.096239582 0.98900002
0.22976117 0.097973637 0.98900002
0.23149523 0.098840654 0.98900002
0.2340963 0.099707678 0.98900002
0.23149523 0.10144173 0.98900002
0.23409629 0.10144173 0.98900002
0.23149523 0.10317577 0.98900002
0.23409629 0.10317577 0.98900002
0.2008899 -0.016523411 0.99199998
0.2008899 -0.014784106 0.99199998
0.20262922 -0.0130448 0.99199998
0.20436852 -0.0078268796 0.99199998
0.20610783 -0.0078268796 0.99199998
0.20784713 -0.0078268796 0.99199998
0.20436852 -0.0060875728 0.99199998
0.20610783 -0.0060875728 0.99199998
0.20784713 -0.0060875728 0.99199998
0.20436852 -0.0043482664 0.99199998
0.20610783 -0.0043482664 0.99199998
0.20784713 -0.0043482664 0.99199998
0.20436852 0.0086965328 0.99199998
0.20349887 0.011305492 0.99199998
0.20349886 0.013914452 0.99200004
0.20262922 0.016523411 0.99199998
0.20262922 0.018262718 0.99199998
0.20262922 0.020002026 0.99199998
0.20436852 0.023480639 0.99199998
0.20436852 0.025219945 0.99199998
0.20610783 0.026959252 0.99199998
0.20610783 0.028698558 0.99199998
0.20784713 0.028698558 0.99199998
0.20784713 0.031307518 0.99199998
0.20871679 0.033916477 0.99199998
0.20610783 0.036525436 0.99199998
0.20784713 0.036525436 0.99199998
0.20784713 0.039134398 0.99199998
0.20871678 0.040873706 0.99199998
0.20958644 0.043482665 0.99199998
0.20958644 0.046091624 0.99199998
0.20958644 0.048700582 0.99199998
0.20958644 0.051309545 0.99199998
0.20958644 0.053918503 0.99199998
0.20958644 0.058266766 0.99199998
0.21132575 0.058266766 0.99199998
0.20958644 0.060006075 0.99199998
0.21132575 0.060006075 0.99199998
0.21306506 0.061745383 0.99199998
0.2139347 0.063484691 0.99199998
0.21393472 0.066093646 0.99200004
0.21480437 0.068702608 0.99199998
0.21480437 0.071311571 0.99199998
0.21654366 0.071311571 0.99199998
0.22176158 0.089574285 0.99199998
0.22350089 0.09479221 0.99199998
0.22350089 0.096531518 0.99199998
0.22610986 0.096531518 0.99199998
0.22350089 0.098270826 0.99199998
0.22610986 0.098270826 0.99199998
0.22871882 0.098270826 0.99199998
0.23741536 0.098270826 0.99199998
0.22350089 0.10087978 0.99199998
0.22610986 0.10087979 0.99200004
0.22871882 0.10087979 0.99199998
0.23045813 0.10087978 0.99199998
0.23741536 0.10087978 0.99199998
0.23915465 0.10087979 0.99199998
0.22610986 0.10348874 0.99199998
0.22871882 0.10348874 0.99199998
0.23045813 0.10348874 0.99199998
0.23741536 0.10348874 0.99199998
0.23915465 0.10348874 0.99199998
0.22697949 0.10522804 0.99199998
0.22871882 0.10522804 0.99199998
0.19626375 -0.01308425 0.995
0.19917135 -0.013665772 0.995
0.20149744 -0.01308425 0.995
0.19626375 -0.011339683 0.995
0.19888058 -0.011339683 0.995
0.20149744 -0.011339683 0.995
0.20324202 -0.011339683 0.995
0.19626375 -0.0087228324 0.995
0.19888058 -0.0087228324 0.99499995
0.20149744 -0.0087228324 0.995
0.20324202 -0.0087228324 0.995
0.19626375 -0.0061059832 0.995
0.19888058 -0.0061059832 0.995
0.20149744 -0.0061059832 0.995
0.20324202 -0.0061059832 0.995
0.19888058 -0.0043614162 0.995
0.20149744 -0.0043614162 0.995
0.20382355 -0.0031983722 0.995
0.20673114 -0.00261685 0.995
0.20847571 -0.00261685 0.995
0.20411429 -0.0008722833 0.995
0.20673114 -0.0008722833 0.995
0.21022028 -0.0008722833 0.995
0.20411429 0.0008722833 0.995
0.20673114 0.0008722833 0.995
0.20498657 0.003489133 0.995
0.20673114 0.00261685 0.995
0.20498657 0.0061059832 0.995
0.20673114 0.0314022 0.995
0.20673114 0.034019049 0.995
0.20673114 0.039252751 0.995
0.20847571 0.043614164 0.995
0.20673114 0.046231017 0.995
0.20847571 0.046231017 0.995
0.20498657 0.048847865 0.995
0.20673114 0.048847865 0.995
0.20847571 0.048847865 0.995
0.20847571 0.051464718 0.995
0.20847571 0.054081567 0.995
0.21109256 0.061932109 0.995
0.21109256 0.063676685 0.995
0.21109256 0.06629353 0.99499995
0.21109256 0.068910383 0.995
0.2137094 0.068910383 0.995
0.21196485 0.070654951 0.995
0.2137094 0.070654951 0.995
0.22068767 0.089845181 0.995
0.22068767 0.091589741 0.995
0.22243224 0.096823446 0.995
0.22243224 0.098568007 0.995
0.24336705 0.098568007 0.995
0.24511161 0.098568007 0.995
0.22243224 0.10118486 0.995
0.24162246 0.10118487 0.995
0.24336705 0.10118487 0.995
0.24511161 0.10118486 0.995
0.24162246 0.10380171 0.995
0.24336705 0.10380171 0.995
0.24511161 0.10380171 0.995
0.22592136 0.10554628 0.995
0.22853823 0.10729085 0.995
0.23115507 0.10641856 0.995
0.23348117 0.10612781 0.995
0.22853823 0.10903541 0.995
0.23115507 0.10903541 0.995
0.19510567 -0.0078742197 0.99800003
0.19510567 -0.0061243931 0.99800003
0.19627222 -0.0037912913 0.99800009
0.19860533 -0.0026247399 0.99800003
0.20123008 -0.0026247399 0.99800003
0.20210499 -0.0008749133 0.99800003
0.20210499 0.0008749133 0.99800003
0.20210499 0.0026247399 0.99800003
0.20385481 0.0026247399 0.99800003
0.20210499 0.0096240472 0.99800003
0.20385481 0.0096240472 0.99800003
0.20210499 0.011373873 0.99800003
0.20123008 0.016623352 0.99800003
0.20210499 0.01837318 0.99800003
0.20560463 0.02887214 0.99800003
0.20560463 0.031496879 0.99800003
0.20560463 0.034121618 0.99800003
0.20560463 0.035871446 0.99800003
0.20560463 0.037621275 0.99800003
0.20735446 0.041120928 0.99800003
0.20735446 0.043745667 0.99800003
0.20735446 0.051619884 0.99800003
0.20735446 0.053369712 0.99800003
0.20735446 0.055119537 0.99800003
0.20910428 0.058619194 0.99800003
0.20910428 0.061243933 0.99800003
0.20910428 0.063868672 0.99800003
0.22135307 0.10148995 0.99800003
0.2239778 0.10411468 0.99800003
0.2239778 0.10586451 0.99800003
0.23710151 0.10586451 0.99800003
0.23885134 0.10586451 0.99800003
0.24147609 0.10586451 0.99800003
0.2239778 0.10848925 0.99800009
0.22660254 0.10848925 0.99800003
0.22835237 0.11111399 0.99800003
0.2301022 0.11111399 0.99800003
0.19569217 -0.0026326301 1.001
0.19656971 -0.00087754335 1.001
0.19920233 -0.00087754335 1.001
0.20095742 -0.00087754335 1.001
0.19920233 0.00087754335 1.001
0.20095742 0.00087754335 1.001
0.19744724 0.0026326301 1.001
0.19920233 0.0026326301 1.001
0.20095742 0.0026326301 1.001
0.20359007 0.021061039 1.001
0.20622268 0.027203845 1.001
0.20446761 0.031591561 1.001
0.20446761 0.03422419 1.001
0.20446761 0.035979275 1.001
0.20446761 0.037734363 1.001
0.20622268 0.039489452 1.001
0.20622268 0.041244537 1.001
0.20622268 0.051775057 1.001
0.20622268 0.053530145 1.001
0.20622268 0.05528523 1.001
0.20885532 0.057040315 1.001
0.21148795 0.057040315 1.001
0.20797777 0.061428033 1.001
0.20797777 0.064060666 1.001
0.20885532 0.065815754 1.001
0.20885533 0.06844838 1.001
0.21499811 0.081611529 1.001
0.2167532 0.081611529 1.001
0.21499811 0.083366618 1.001
0.2167532 0.083366618 1.001
0.21850829 0.083366618 1.001
0.2167532 0.085121706 1.001
0.21850829 0.08599925 1.001
0.22026338 0.08599925 1.001
0.22026338 0.10091748 1.001
0.22114092 0.10355011 1.001
0.22114092 0.10618274 1.001
0.2448346 0.10618274 1.001
